ncols        226
nrows        86
xllcorner    1677280
yllcorner    5079360
cellsize     20.000000000000
NODATA_value  -9999
1693 1690 1686 1681 1675 1667 1659 1650 1641 1633 1626 1619 1613 1607 1602 1597 1594 1591 1590 1588 1586 1582 1577 1573 1567 1561 1553 1544 1535 1525 1515 1507 1501 1496 1492 1488 1484 1479 1475 1470 1464 1456 1445 1434 1421 1408 1395 1384 1374 1365 1357 1347 1336 1322 1307 1291 1277 1264 1253 1243 1235 1227 1218 1208 1196 1185 1174 1164 1155 1147 1139 1131 1121 1113 1108 1104 1100 1096 1093 1096 1098 1097 1093 1086 1076 1066 1055 1045 1035 1026 1016 1007 999 991 983 974 966 957 972 985 995 1002 1006 1009 1010 1013 1016 1023 1030 1039 1045 1048 1047 1043 1037 1031 1027 1025 1028 1035 1043 1050 1056 1061 1065 1068 1070 1071 1070 1066 1060 1053 1044 1036 1027 1020 1015 1012 1011 1011 1012 1013 1014 1014 1014 1014 1013 1012 1010 1007 1008 1008 1009 1009 1010 1012 1016 1021 1027 1034 1041 1048 1055 1062 1068 1074 1080 1084 1088 1089 1089 1088 1087 1085 1084 1082 1081 1080 1080 1079 1079 1079 1078 1078 1077 1078 1079 1080 1082 1085 1087 1091 1094 1098 1103 1107 1112 1115 1118 1120 1121 -9999 -9999 -9999 -9999 -9999 -9999 -9999 -9999 -9999 -9999 -9999 -9999 -9999 -9999 -9999 -9999 -9999 -9999 -9999 -9999 -9999 -9999 -9999 -9999 -9999
1689 1686 1682 1678 1672 1666 1657 1649 1640 1632 1624 1617 1610 1604 1598 1593 1589 1586 1585 1584 1582 1579 1575 1571 1566 1560 1554 1547 1538 1530 1521 1514 1508 1503 1499 1494 1490 1485 1480 1475 1469 1462 1453 1444 1433 1421 1409 1397 1387 1379 1371 1362 1350 1336 1321 1304 1289 1276 1265 1255 1247 1238 1229 1219 1208 1197 1186 1176 1167 1159 1151 1144 1136 1130 1124 1120 1115 1112 1110 1111 1111 1109 1104 1095 1084 1072 1061 1050 1040 1030 1020 1011 1001 993 984 975 965 955 966 976 984 990 994 996 997 999 1001 1007 1014 1021 1026 1028 1025 1020 1014 1008 1005 1005 1010 1017 1026 1034 1040 1045 1050 1054 1059 1062 1063 1062 1058 1051 1043 1034 1025 1017 1011 1008 1007 1008 1009 1010 1010 1010 1010 1010 1009 1008 1007 1005 1005 1006 1006 1007 1009 1013 1017 1023 1030 1038 1045 1052 1059 1066 1072 1077 1083 1087 1090 1091 1091 1090 1088 1086 1084 1083 1081 1080 1080 1079 1079 1078 1077 1077 1077 1077 1078 1080 1082 1084 1087 1091 1095 1099 1104 1108 1112 1115 1118 1119 -9999 -9999 -9999 -9999 -9999 -9999 -9999 -9999 -9999 -9999 -9999 -9999 -9999 -9999 -9999 -9999 -9999 -9999 -9999 -9999 -9999 -9999 -9999 -9999 -9999 -9999
1685 1681 1677 1674 1669 1663 1656 1648 1640 1632 1625 1617 1609 1602 1595 1589 1584 1581 1580 1579 1578 1576 1572 1568 1563 1558 1552 1547 1540 1533 1525 1518 1512 1507 1502 1497 1492 1487 1481 1475 1469 1463 1457 1450 1441 1430 1419 1408 1398 1389 1380 1371 1359 1346 1330 1315 1300 1287 1276 1266 1258 1249 1240 1230 1219 1209 1198 1188 1180 1171 1164 1157 1150 1145 1140 1135 1131 1127 1125 1124 1123 1120 1114 1104 1092 1079 1066 1055 1044 1034 1024 1014 1004 994 985 975 964 953 960 967 973 978 981 983 984 985 987 991 997 1002 1006 1006 1003 998 992 987 985 987 992 1000 1009 1018 1024 1029 1034 1039 1045 1050 1053 1054 1052 1047 1039 1030 1020 1011 1005 1002 1003 1005 1007 1008 1008 1007 1007 1006 1006 1005 1004 1002 1003 1003 1004 1006 1009 1014 1020 1027 1034 1042 1049 1057 1064 1070 1076 1081 1086 1090 1092 1093 1093 1091 1089 1087 1085 1083 1082 1081 1080 1079 1078 1077 1077 1076 1076 1076 1077 1079 1081 1084 1087 1091 1095 1099 1104 1109 1113 1116 1118 1119 -9999 -9999 -9999 -9999 -9999 -9999 -9999 -9999 -9999 -9999 -9999 -9999 -9999 -9999 -9999 -9999 -9999 -9999 -9999 -9999 -9999 -9999 -9999 -9999 -9999 -9999
1681 1676 1672 1668 1664 1659 1654 1647 1640 1633 1625 1617 1609 1601 1593 1586 1581 1577 1575 1574 1574 1572 1569 1564 1559 1554 1550 1545 1540 1534 1527 1520 1513 1508 1502 1497 1491 1485 1479 1473 1468 1462 1457 1451 1444 1435 1425 1415 1405 1396 1386 1376 1364 1351 1337 1322 1309 1297 1286 1277 1268 1260 1250 1240 1230 1220 1210 1201 1192 1184 1177 1170 1164 1159 1155 1150 1146 1142 1139 1137 1135 1130 1123 1113 1100 1086 1073 1061 1049 1039 1028 1017 1007 997 986 976 964 949 954 958 961 965 968 971 972 972 973 976 980 984 986 986 983 978 972 969 967 970 975 984 992 1000 1007 1013 1018 1024 1030 1036 1041 1044 1043 1039 1032 1023 1013 1004 997 995 998 1002 1005 1006 1006 1005 1004 1003 1002 1001 1001 1000 1000 1001 1003 1005 1010 1015 1022 1030 1038 1046 1054 1062 1069 1075 1080 1085 1089 1093 1095 1095 1094 1093 1090 1088 1086 1084 1082 1081 1080 1079 1078 1077 1076 1075 1075 1075 1077 1078 1081 1083 1087 1090 1095 1099 1104 1109 1113 1115 1117 1118 -9999 -9999 -9999 -9999 -9999 -9999 -9999 -9999 -9999 -9999 -9999 -9999 -9999 -9999 -9999 -9999 -9999 -9999 -9999 -9999 -9999 -9999 -9999 -9999 -9999 -9999
1676 1671 1666 1662 1658 1654 1650 1645 1639 1632 1625 1617 1609 1600 1591 1584 1578 1573 1571 1570 1569 1568 1565 1561 1556 1550 1546 1542 1538 1533 1527 1520 1513 1507 1500 1495 1488 1482 1475 1469 1464 1459 1454 1449 1443 1435 1427 1418 1409 1400 1390 1379 1367 1355 1342 1329 1317 1306 1297 1288 1279 1269 1260 1251 1241 1232 1223 1214 1205 1197 1190 1184 1179 1174 1169 1165 1160 1155 1151 1148 1144 1139 1131 1120 1106 1092 1079 1067 1055 1044 1033 1022 1011 1000 989 979 966 948 948 947 946 952 955 958 959 959 959 960 963 966 967 966 964 959 955 952 951 954 960 968 976 984 991 997 1002 1008 1015 1021 1027 1030 1031 1028 1021 1013 1003 994 986 983 990 999 1004 1005 1004 1002 1001 999 998 998 997 997 998 999 1001 1005 1011 1017 1025 1033 1042 1050 1058 1066 1073 1079 1085 1089 1093 1096 1097 1097 1096 1094 1091 1089 1087 1085 1083 1081 1080 1078 1077 1076 1075 1074 1074 1074 1076 1078 1080 1083 1086 1090 1094 1099 1104 1109 1112 1115 1116 -9999 -9999 -9999 -9999 -9999 -9999 -9999 -9999 -9999 -9999 -9999 -9999 -9999 -9999 -9999 -9999 -9999 -9999 -9999 -9999 -9999 -9999 -9999 -9999 -9999 -9999 -9999
1672 1665 1660 1655 1651 1648 1645 1641 1636 1631 1624 1616 1608 1599 1590 1582 1575 1570 1567 1565 1564 1563 1561 1557 1552 1547 1543 1539 1536 1531 1526 1519 1511 1504 1498 1491 1484 1477 1471 1465 1460 1455 1450 1445 1440 1433 1426 1418 1410 1401 1391 1381 1370 1358 1347 1335 1325 1316 1307 1298 1288 1279 1270 1261 1252 1243 1235 1226 1218 1210 1203 1198 1193 1188 1184 1179 1173 1168 1162 1158 1153 1147 1138 1126 1112 1098 1085 1073 1061 1051 1039 1028 1016 1005 995 985 975 962 948 951 946 943 941 946 946 944 943 943 946 948 949 948 945 942 938 935 935 939 945 953 961 969 975 981 987 993 999 1005 1011 1015 1016 1014 1009 1001 991 981 971 961 980 994 1001 1003 1002 999 997 995 994 993 993 994 995 997 1001 1005 1012 1019 1028 1037 1045 1054 1062 1070 1077 1083 1089 1093 1096 1098 1099 1098 1097 1094 1092 1089 1087 1085 1083 1081 1080 1078 1077 1076 1075 1074 1073 1074 1075 1077 1079 1082 1085 1089 1094 1099 1104 1108 1112 1114 1116 -9999 -9999 -9999 -9999 -9999 -9999 -9999 -9999 -9999 -9999 -9999 -9999 -9999 -9999 -9999 -9999 -9999 -9999 -9999 -9999 -9999 -9999 -9999 -9999 -9999 -9999 -9999
1667 1660 1653 1648 1644 1641 1639 1636 1632 1628 1622 1615 1606 1598 1589 1580 1573 1567 1563 1561 1560 1559 1557 1553 1549 1544 1540 1537 1533 1529 1524 1517 1510 1502 1494 1487 1480 1472 1466 1460 1455 1450 1446 1441 1436 1430 1423 1416 1409 1400 1391 1382 1372 1362 1352 1342 1333 1325 1316 1307 1298 1288 1279 1271 1262 1254 1246 1238 1230 1223 1216 1211 1206 1202 1197 1191 1185 1178 1172 1166 1160 1153 1143 1131 1118 1104 1091 1079 1068 1057 1046 1034 1022 1012 1003 994 986 978 969 965 959 952 941 938 935 929 926 923 931 932 931 929 927 923 920 918 918 923 929 938 946 953 961 967 973 978 984 989 994 998 1000 999 995 988 978 967 956 949 970 987 996 999 998 995 991 989 987 987 989 991 993 996 1000 1006 1013 1021 1031 1040 1049 1057 1065 1073 1080 1087 1092 1097 1100 1101 1101 1100 1098 1095 1092 1090 1087 1085 1083 1081 1079 1078 1076 1075 1074 1073 1072 1073 1074 1076 1079 1081 1085 1089 1093 1098 1103 1107 1110 1112 -9999 -9999 -9999 -9999 -9999 -9999 -9999 -9999 -9999 -9999 -9999 -9999 -9999 -9999 -9999 -9999 -9999 -9999 -9999 -9999 -9999 -9999 -9999 -9999 -9999 -9999 -9999 -9999
1663 1655 1648 1642 1638 1635 1633 1630 1628 1624 1619 1612 1604 1596 1587 1579 1571 1564 1559 1556 1555 1554 1552 1549 1545 1541 1538 1534 1531 1527 1522 1515 1508 1499 1491 1483 1475 1468 1461 1455 1450 1445 1441 1436 1431 1425 1419 1413 1405 1398 1390 1382 1373 1365 1357 1349 1341 1333 1324 1315 1306 1297 1288 1280 1272 1264 1257 1249 1242 1235 1228 1223 1218 1213 1208 1202 1195 1188 1181 1174 1166 1158 1148 1136 1123 1109 1097 1085 1074 1063 1052 1040 1030 1020 1012 1005 999 992 985 979 973 966 959 954 949 943 936 923 921 916 913 910 907 904 901 899 896 906 913 921 929 938 945 952 958 964 968 973 978 982 985 985 982 975 964 952 938 938 962 979 988 991 990 987 983 980 979 980 984 988 990 994 999 1006 1014 1023 1033 1042 1051 1060 1068 1075 1083 1089 1095 1099 1102 1103 1103 1101 1099 1096 1094 1091 1088 1086 1083 1081 1079 1078 1076 1075 1073 1072 1072 1072 1073 1075 1078 1081 1084 1088 1093 1097 1102 1106 1109 1110 -9999 -9999 -9999 -9999 -9999 -9999 -9999 -9999 -9999 -9999 -9999 -9999 -9999 -9999 -9999 -9999 -9999 -9999 -9999 -9999 -9999 -9999 -9999 -9999 -9999 -9999 -9999 -9999
1659 1651 1644 1638 1633 1630 1628 1626 1623 1620 1615 1609 1602 1594 1585 1577 1569 1562 1556 1552 1550 1548 1547 1545 1542 1539 1535 1532 1528 1524 1519 1513 1505 1497 1488 1479 1471 1463 1456 1450 1445 1440 1436 1431 1426 1420 1414 1408 1401 1394 1387 1380 1373 1366 1359 1353 1346 1338 1330 1321 1312 1303 1295 1287 1280 1272 1265 1259 1252 1245 1239 1233 1228 1223 1218 1211 1203 1195 1187 1180 1172 1163 1152 1141 1128 1115 1103 1091 1080 1069 1058 1048 1038 1030 1023 1017 1012 1005 998 992 986 980 974 969 964 959 952 944 939 934 929 925 921 917 913 907 896 894 893 903 910 920 929 937 944 949 954 958 962 966 970 971 969 962 952 940 926 937 955 970 978 980 979 976 972 969 968 971 980 985 987 992 999 1007 1015 1025 1035 1044 1053 1061 1069 1077 1084 1091 1096 1101 1104 1105 1105 1103 1101 1098 1095 1093 1090 1087 1084 1082 1080 1078 1076 1074 1073 1072 1071 1072 1073 1075 1078 1081 1084 1088 1092 1097 1100 1104 1107 1108 -9999 -9999 -9999 -9999 -9999 -9999 -9999 -9999 -9999 -9999 -9999 -9999 -9999 -9999 -9999 -9999 -9999 -9999 -9999 -9999 -9999 -9999 -9999 -9999 -9999 -9999 -9999 -9999
1656 1648 1641 1635 1630 1627 1624 1622 1620 1617 1612 1606 1599 1591 1583 1574 1566 1559 1553 1549 1545 1544 1542 1540 1538 1536 1532 1529 1525 1520 1515 1509 1502 1494 1485 1476 1467 1458 1451 1445 1440 1436 1431 1426 1421 1415 1409 1402 1395 1389 1382 1376 1370 1365 1359 1354 1348 1341 1333 1324 1315 1307 1299 1292 1285 1279 1273 1266 1260 1254 1248 1242 1237 1231 1225 1218 1210 1201 1193 1185 1176 1167 1157 1146 1134 1122 1110 1098 1087 1076 1065 1056 1047 1040 1034 1029 1024 1017 1010 1004 999 994 989 985 980 975 969 963 957 950 945 939 934 930 925 918 909 902 893 889 884 900 912 922 929 934 939 943 946 951 955 958 956 950 941 929 917 931 946 958 965 967 965 961 957 954 953 959 980 980 981 988 997 1006 1016 1026 1036 1045 1053 1061 1069 1077 1084 1091 1097 1102 1105 1107 1107 1106 1103 1101 1098 1095 1092 1089 1086 1083 1080 1078 1076 1074 1073 1072 1071 1071 1072 1074 1077 1081 1084 1088 1092 1096 1099 1103 1105 1107 -9999 -9999 -9999 -9999 -9999 -9999 -9999 -9999 -9999 -9999 -9999 -9999 -9999 -9999 -9999 -9999 -9999 -9999 -9999 -9999 -9999 -9999 -9999 -9999 -9999 -9999 -9999 -9999
1653 1646 1639 1633 1629 1625 1622 1620 1617 1613 1609 1603 1596 1589 1581 1572 1564 1557 1551 1545 1542 1539 1537 1536 1534 1532 1529 1526 1521 1517 1511 1505 1498 1490 1481 1472 1463 1454 1447 1440 1435 1431 1426 1421 1415 1409 1403 1397 1390 1384 1378 1372 1367 1362 1357 1352 1347 1340 1333 1325 1317 1309 1302 1295 1289 1283 1278 1272 1267 1261 1255 1249 1243 1237 1230 1223 1214 1206 1197 1189 1181 1172 1162 1151 1140 1128 1116 1105 1094 1083 1074 1065 1057 1051 1046 1040 1035 1028 1022 1016 1012 1008 1004 1001 997 992 986 980 973 967 960 953 947 941 934 926 917 908 900 895 884 883 896 906 914 919 924 927 931 935 940 943 942 937 928 918 907 921 934 945 951 951 949 944 940 937 934 931 923 951 967 981 994 1005 1015 1025 1035 1044 1053 1061 1068 1076 1083 1090 1096 1101 1105 1108 1109 1108 1106 1103 1100 1097 1094 1090 1087 1084 1081 1078 1076 1074 1072 1071 1071 1071 1072 1074 1077 1080 1084 1088 1092 1095 1098 1101 1104 1105 -9999 -9999 -9999 -9999 -9999 -9999 -9999 -9999 -9999 -9999 -9999 -9999 -9999 -9999 -9999 -9999 -9999 -9999 -9999 -9999 -9999 -9999 -9999 -9999 -9999 -9999 -9999 -9999
1650 1644 1637 1632 1627 1624 1621 1617 1614 1610 1605 1600 1593 1586 1579 1571 1562 1555 1548 1543 1538 1535 1533 1532 1530 1528 1526 1522 1518 1513 1507 1501 1494 1486 1478 1468 1459 1450 1442 1436 1430 1426 1421 1415 1410 1404 1397 1391 1385 1379 1373 1367 1362 1358 1354 1349 1344 1338 1331 1324 1316 1309 1302 1296 1291 1286 1281 1276 1271 1266 1260 1254 1248 1241 1234 1226 1217 1209 1201 1192 1184 1176 1166 1156 1145 1134 1123 1112 1101 1092 1083 1075 1068 1062 1057 1051 1045 1038 1033 1028 1025 1021 1019 1016 1012 1007 1002 996 989 981 973 965 957 948 939 929 919 911 901 901 893 881 881 892 900 905 908 911 915 919 923 925 925 921 914 906 898 909 921 929 934 934 932 927 924 920 916 911 901 931 954 973 988 1001 1012 1023 1033 1042 1051 1059 1066 1074 1081 1088 1094 1099 1104 1108 1110 1110 1108 1106 1103 1099 1096 1092 1088 1085 1082 1079 1076 1074 1072 1071 1071 1071 1072 1074 1077 1080 1084 1088 1092 1095 1098 1100 1102 1104 -9999 -9999 -9999 -9999 -9999 -9999 -9999 -9999 -9999 -9999 -9999 -9999 -9999 -9999 -9999 -9999 -9999 -9999 -9999 -9999 -9999 -9999 -9999 -9999 -9999 -9999 -9999 -9999
1647 1641 1635 1630 1626 1622 1618 1615 1611 1606 1601 1596 1590 1584 1577 1569 1561 1554 1547 1541 1536 1532 1529 1527 1526 1524 1522 1519 1514 1509 1504 1497 1491 1483 1474 1465 1455 1446 1438 1431 1426 1421 1416 1410 1404 1398 1392 1386 1380 1374 1368 1363 1358 1353 1349 1344 1340 1334 1328 1321 1315 1308 1301 1296 1291 1286 1282 1277 1273 1268 1263 1257 1250 1244 1236 1228 1220 1211 1203 1195 1187 1179 1170 1161 1150 1140 1129 1119 1109 1100 1092 1085 1079 1073 1066 1060 1054 1048 1043 1040 1037 1034 1032 1029 1025 1021 1015 1008 1001 993 984 974 963 952 941 930 918 913 907 910 906 896 880 880 887 890 892 894 898 902 904 905 905 902 897 892 888 895 905 912 916 916 914 911 907 904 901 895 890 918 942 962 979 994 1007 1019 1029 1039 1047 1055 1063 1070 1077 1084 1090 1097 1102 1107 1110 1111 1110 1107 1104 1101 1097 1093 1089 1085 1082 1079 1076 1074 1072 1071 1071 1071 1072 1074 1077 1080 1084 1088 1091 1094 1097 1100 1102 1103 -9999 -9999 -9999 -9999 -9999 -9999 -9999 -9999 -9999 -9999 -9999 -9999 -9999 -9999 -9999 -9999 -9999 -9999 -9999 -9999 -9999 -9999 -9999 -9999 -9999 -9999 -9999 -9999
1643 1638 1633 1628 1623 1619 1616 1612 1607 1602 1597 1592 1587 1582 1575 1568 1560 1553 1546 1539 1534 1530 1526 1524 1522 1520 1518 1515 1511 1506 1500 1494 1488 1480 1472 1462 1453 1443 1435 1428 1422 1416 1411 1405 1399 1393 1387 1381 1375 1369 1363 1358 1353 1348 1344 1339 1335 1330 1324 1318 1312 1306 1300 1294 1289 1285 1281 1277 1272 1268 1263 1257 1251 1244 1237 1229 1221 1213 1205 1198 1190 1182 1173 1164 1154 1144 1134 1125 1116 1108 1101 1094 1088 1082 1075 1068 1062 1057 1053 1050 1047 1045 1042 1039 1035 1030 1024 1017 1009 1000 990 978 965 952 940 930 930 929 927 927 923 913 898 879 878 877 876 874 881 883 883 882 881 879 878 875 870 878 886 892 896 897 896 894 891 889 886 880 880 906 929 949 968 984 999 1012 1024 1034 1042 1050 1058 1065 1072 1080 1087 1093 1100 1105 1109 1110 1110 1108 1106 1102 1098 1094 1090 1086 1082 1079 1076 1074 1072 1071 1071 1071 1072 1074 1077 1081 1084 1088 1091 1094 1097 1099 1101 1102 -9999 -9999 -9999 -9999 -9999 -9999 -9999 -9999 -9999 -9999 -9999 -9999 -9999 -9999 -9999 -9999 -9999 -9999 -9999 -9999 -9999 -9999 -9999 -9999 -9999 -9999 -9999 -9999
1640 1635 1630 1625 1620 1616 1613 1609 1604 1599 1594 1589 1585 1580 1574 1567 1560 1552 1545 1539 1533 1528 1524 1521 1519 1517 1515 1512 1508 1503 1498 1492 1485 1478 1470 1460 1451 1441 1433 1425 1418 1412 1406 1400 1394 1389 1383 1377 1371 1365 1359 1354 1349 1344 1339 1334 1330 1325 1320 1314 1309 1303 1297 1292 1286 1282 1278 1274 1270 1266 1261 1256 1250 1243 1236 1229 1221 1214 1207 1199 1192 1184 1175 1166 1156 1147 1138 1129 1121 1114 1108 1101 1095 1089 1082 1075 1069 1064 1060 1057 1055 1052 1049 1045 1041 1035 1029 1021 1012 1001 989 975 960 947 935 935 942 944 944 943 939 931 920 907 900 894 887 874 868 864 862 857 855 853 859 857 853 858 865 871 875 876 876 875 874 873 872 869 879 896 915 934 953 971 987 1002 1016 1027 1036 1044 1052 1060 1068 1075 1082 1090 1096 1102 1107 1109 1109 1108 1106 1103 1099 1095 1090 1086 1082 1079 1076 1073 1072 1071 1071 1071 1073 1075 1078 1081 1085 1088 1091 1094 1096 1099 1100 1102 -9999 -9999 -9999 -9999 -9999 -9999 -9999 -9999 -9999 -9999 -9999 -9999 -9999 -9999 -9999 -9999 -9999 -9999 -9999 -9999 -9999 -9999 -9999 -9999 -9999 -9999 -9999 -9999
1637 1632 1627 1622 1617 1613 1609 1605 1601 1596 1592 1587 1583 1578 1573 1567 1560 1552 1545 1538 1532 1527 1523 1519 1516 1514 1512 1509 1505 1500 1495 1490 1483 1476 1468 1459 1449 1440 1431 1422 1415 1409 1402 1396 1390 1384 1379 1373 1367 1362 1356 1350 1345 1340 1335 1331 1326 1321 1316 1311 1306 1300 1294 1288 1283 1278 1273 1269 1265 1262 1257 1253 1247 1241 1234 1228 1221 1214 1206 1199 1192 1184 1175 1166 1157 1148 1139 1131 1124 1117 1111 1105 1099 1093 1086 1079 1073 1068 1064 1061 1058 1054 1050 1046 1041 1034 1027 1019 1009 996 981 966 949 941 941 950 956 959 960 959 955 948 938 928 920 911 902 891 882 873 862 857 858 851 848 840 837 834 844 848 853 856 856 855 855 856 857 858 871 886 902 919 937 955 973 990 1005 1019 1029 1039 1047 1055 1063 1071 1079 1086 1093 1099 1104 1107 1108 1108 1106 1104 1100 1095 1090 1086 1082 1078 1075 1073 1071 1071 1071 1072 1073 1076 1079 1082 1085 1088 1091 1093 1096 1098 1099 -9999 -9999 -9999 -9999 -9999 -9999 -9999 -9999 -9999 -9999 -9999 -9999 -9999 -9999 -9999 -9999 -9999 -9999 -9999 -9999 -9999 -9999 -9999 -9999 -9999 -9999 -9999 -9999 -9999
1634 1629 1624 1618 1613 1609 1605 1601 1598 1594 1589 1585 1582 1577 1573 1567 1560 1553 1545 1539 1532 1527 1522 1518 1514 1512 1509 1506 1502 1498 1493 1487 1482 1475 1467 1457 1448 1438 1429 1421 1413 1406 1399 1393 1387 1381 1376 1370 1364 1359 1353 1348 1343 1338 1333 1328 1323 1319 1314 1309 1303 1297 1291 1284 1278 1273 1268 1264 1260 1256 1253 1248 1244 1238 1232 1226 1219 1212 1205 1198 1190 1182 1174 1165 1156 1147 1139 1131 1124 1118 1111 1105 1099 1093 1086 1080 1074 1069 1064 1060 1056 1052 1047 1041 1036 1028 1020 1012 1001 986 967 957 949 957 962 968 972 973 974 972 969 962 954 945 936 927 917 906 895 884 869 869 869 864 860 853 846 834 828 825 833 835 834 832 831 835 839 846 860 875 890 904 920 938 956 975 993 1009 1022 1033 1043 1052 1060 1068 1076 1083 1090 1097 1102 1105 1107 1108 1106 1104 1100 1095 1090 1086 1081 1078 1075 1072 1071 1070 1071 1072 1074 1076 1079 1082 1084 1087 1090 1093 1096 1098 1099 -9999 -9999 -9999 -9999 -9999 -9999 -9999 -9999 -9999 -9999 -9999 -9999 -9999 -9999 -9999 -9999 -9999 -9999 -9999 -9999 -9999 -9999 -9999 -9999 -9999 -9999 -9999 -9999 -9999
1631 1626 1621 1615 1609 1605 1601 1598 1594 1591 1587 1584 1580 1577 1572 1567 1561 1554 1546 1539 1533 1527 1521 1517 1513 1509 1506 1503 1499 1495 1490 1485 1479 1473 1465 1456 1446 1436 1427 1419 1411 1404 1397 1391 1385 1379 1373 1368 1363 1357 1352 1347 1342 1337 1332 1327 1323 1318 1312 1307 1301 1295 1288 1281 1274 1268 1263 1258 1254 1251 1247 1243 1239 1234 1229 1223 1216 1210 1203 1195 1188 1179 1170 1162 1153 1145 1137 1129 1122 1116 1109 1103 1096 1089 1083 1077 1071 1065 1060 1055 1050 1044 1038 1032 1026 1018 1008 1001 991 976 967 971 972 977 981 984 986 987 987 986 982 977 969 960 951 941 930 920 909 898 888 886 883 879 874 867 859 850 840 824 819 815 810 807 798 810 817 835 849 864 877 891 905 922 940 960 980 998 1014 1028 1039 1049 1058 1066 1073 1081 1088 1095 1100 1104 1106 1107 1106 1104 1100 1096 1090 1085 1081 1077 1074 1072 1071 1070 1071 1072 1074 1077 1079 1082 1084 1087 1089 1092 1095 1097 1098 -9999 -9999 -9999 -9999 -9999 -9999 -9999 -9999 -9999 -9999 -9999 -9999 -9999 -9999 -9999 -9999 -9999 -9999 -9999 -9999 -9999 -9999 -9999 -9999 -9999 -9999 -9999 -9999 -9999
1628 1623 1617 1611 1606 1601 1597 1594 1591 1588 1585 1582 1579 1576 1572 1567 1561 1554 1547 1540 1533 1527 1521 1516 1511 1507 1504 1499 1495 1491 1487 1482 1477 1471 1463 1454 1445 1435 1426 1418 1410 1402 1395 1389 1383 1377 1372 1367 1362 1357 1352 1348 1343 1338 1333 1328 1323 1318 1312 1306 1300 1293 1285 1278 1271 1264 1259 1254 1249 1245 1242 1238 1234 1230 1225 1219 1213 1207 1199 1192 1184 1175 1166 1157 1149 1141 1133 1126 1119 1112 1105 1098 1091 1084 1078 1071 1065 1059 1053 1047 1040 1032 1025 1019 1012 1004 990 988 985 976 983 988 991 995 997 999 1000 1000 1000 999 996 992 984 976 966 955 944 933 922 911 911 904 900 895 889 883 875 867 857 847 840 833 825 814 798 789 781 824 838 852 865 878 891 907 925 945 966 987 1005 1021 1035 1046 1055 1063 1071 1079 1086 1093 1098 1102 1105 1106 1106 1104 1101 1096 1091 1086 1081 1077 1074 1072 1070 1070 1071 1072 1074 1077 1079 1081 1083 1086 1089 1092 1095 1097 1098 -9999 -9999 -9999 -9999 -9999 -9999 -9999 -9999 -9999 -9999 -9999 -9999 -9999 -9999 -9999 -9999 -9999 -9999 -9999 -9999 -9999 -9999 -9999 -9999 -9999 -9999 -9999 -9999 -9999
1625 1620 1615 1608 1602 1597 1593 1590 1587 1584 1582 1579 1577 1574 1570 1566 1560 1554 1548 1541 1534 1527 1521 1515 1510 1506 1501 1495 1490 1488 1483 1479 1474 1468 1461 1453 1444 1435 1426 1417 1409 1401 1394 1388 1382 1376 1371 1367 1362 1358 1353 1349 1344 1339 1334 1329 1324 1318 1313 1306 1299 1291 1284 1276 1269 1262 1256 1251 1246 1241 1237 1233 1229 1225 1220 1215 1209 1203 1195 1188 1179 1170 1161 1152 1144 1136 1129 1122 1115 1108 1101 1094 1086 1079 1072 1065 1058 1051 1044 1036 1028 1015 1010 1004 999 993 990 998 1000 998 1001 1005 1008 1010 1012 1013 1013 1014 1014 1014 1013 1009 1003 994 983 971 958 945 937 911 921 921 918 913 907 900 892 883 875 866 858 850 840 827 811 795 780 805 825 840 853 866 879 894 911 931 952 974 995 1014 1029 1042 1052 1061 1069 1077 1084 1091 1096 1101 1104 1106 1105 1104 1100 1096 1091 1086 1081 1077 1074 1072 1070 1070 1071 1072 1074 1077 1079 1081 1083 1085 1088 1091 1094 1097 1099 1100 -9999 -9999 -9999 -9999 -9999 -9999 -9999 -9999 -9999 -9999 -9999 -9999 -9999 -9999 -9999 -9999 -9999 -9999 -9999 -9999 -9999 -9999 -9999 -9999 -9999 -9999 -9999 -9999
1622 1617 1612 1606 1600 1594 1590 1586 1583 1581 1578 1576 1574 1571 1568 1563 1559 1553 1547 1541 1534 1527 1520 1514 1509 1504 1500 1495 1490 1486 1479 1474 1469 1464 1458 1451 1443 1434 1425 1417 1408 1400 1393 1387 1381 1376 1371 1367 1363 1358 1354 1350 1345 1340 1335 1330 1325 1319 1313 1306 1299 1291 1283 1276 1268 1262 1256 1250 1244 1239 1234 1229 1225 1220 1216 1211 1205 1198 1191 1183 1174 1165 1155 1146 1138 1130 1123 1117 1110 1103 1096 1089 1081 1074 1067 1059 1052 1044 1034 1023 1019 1015 1019 1018 1016 1014 1013 1015 1016 1016 1018 1020 1023 1025 1026 1026 1027 1028 1030 1031 1032 1030 1025 1016 1004 989 972 953 937 938 942 942 938 934 927 918 909 899 891 882 874 865 854 840 821 799 773 793 812 828 841 854 867 881 898 918 939 961 983 1004 1022 1036 1048 1058 1066 1074 1082 1088 1094 1099 1102 1104 1104 1103 1100 1096 1091 1086 1081 1077 1074 1071 1070 1070 1070 1072 1074 1076 1078 1080 1082 1084 1087 1090 1094 1097 1099 1100 -9999 -9999 -9999 -9999 -9999 -9999 -9999 -9999 -9999 -9999 -9999 -9999 -9999 -9999 -9999 -9999 -9999 -9999 -9999 -9999 -9999 -9999 -9999 -9999 -9999 -9999 -9999 -9999
1619 1615 1609 1603 1597 1591 1586 1583 1580 1577 1575 1572 1570 1567 1564 1560 1556 1551 1546 1540 1534 1527 1520 1513 1508 1503 1499 1495 1490 1486 1474 1469 1465 1461 1456 1450 1442 1433 1424 1416 1408 1400 1392 1386 1380 1375 1371 1367 1363 1359 1355 1351 1346 1341 1336 1331 1325 1320 1314 1307 1299 1291 1284 1276 1270 1263 1257 1250 1244 1238 1232 1227 1222 1217 1212 1207 1200 1193 1186 1178 1169 1160 1150 1141 1132 1125 1118 1111 1105 1098 1091 1084 1077 1069 1062 1054 1046 1037 1026 1023 1028 1030 1032 1033 1032 1032 1031 1032 1032 1033 1034 1035 1037 1038 1039 1039 1041 1043 1046 1050 1053 1053 1050 1042 1029 1011 990 963 961 964 966 964 961 956 948 938 926 915 904 896 887 877 865 849 829 802 769 783 800 816 829 842 855 870 886 905 926 948 971 993 1012 1029 1043 1054 1063 1071 1079 1086 1092 1097 1100 1102 1103 1101 1098 1095 1090 1085 1081 1077 1074 1071 1070 1069 1070 1071 1073 1075 1077 1079 1081 1083 1086 1090 1093 1096 1099 1100 1101 -9999 -9999 -9999 -9999 -9999 -9999 -9999 -9999 -9999 -9999 -9999 -9999 -9999 -9999 -9999 -9999 -9999 -9999 -9999 -9999 -9999 -9999 -9999 -9999 -9999 -9999 -9999
1617 1612 1606 1600 1594 1589 1584 1579 1576 1573 1571 1568 1566 1563 1560 1557 1553 1548 1544 1538 1532 1526 1519 1512 1506 1502 1498 1494 1489 1484 1477 1471 1465 1457 1454 1451 1439 1431 1423 1414 1406 1398 1391 1385 1379 1374 1370 1367 1363 1359 1355 1351 1346 1340 1335 1330 1325 1319 1313 1306 1299 1291 1284 1278 1271 1265 1259 1252 1245 1238 1232 1226 1220 1215 1209 1203 1196 1189 1181 1172 1164 1154 1145 1136 1127 1119 1111 1105 1098 1092 1085 1078 1071 1064 1057 1049 1041 1032 1026 1033 1039 1043 1045 1047 1047 1047 1047 1047 1048 1048 1049 1050 1051 1051 1052 1053 1055 1058 1063 1069 1074 1076 1074 1068 1055 1036 1011 980 982 986 988 987 984 978 969 956 942 929 917 906 896 885 872 856 834 806 768 767 788 804 817 830 843 858 875 894 914 935 958 980 1001 1020 1035 1048 1058 1067 1075 1083 1089 1094 1098 1100 1101 1099 1097 1093 1089 1084 1080 1076 1073 1071 1069 1069 1069 1071 1072 1075 1077 1079 1081 1083 1086 1089 1093 1096 1098 1100 1101 -9999 -9999 -9999 -9999 -9999 -9999 -9999 -9999 -9999 -9999 -9999 -9999 -9999 -9999 -9999 -9999 -9999 -9999 -9999 -9999 -9999 -9999 -9999 -9999 -9999 -9999 -9999
1614 1609 1604 1598 1592 1586 1581 1577 1573 1570 1567 1565 1562 1559 1556 1553 1549 1545 1541 1536 1530 1524 1517 1510 1505 1500 1496 1492 1488 1484 1478 1472 1466 1460 1455 1451 1431 1427 1420 1412 1404 1395 1388 1383 1377 1372 1368 1365 1362 1358 1354 1349 1344 1339 1334 1329 1323 1318 1312 1305 1298 1291 1285 1279 1273 1267 1260 1253 1246 1239 1232 1226 1220 1214 1208 1201 1193 1185 1176 1168 1159 1149 1140 1131 1122 1113 1105 1098 1092 1085 1079 1072 1064 1058 1051 1041 1037 1032 1038 1045 1051 1055 1058 1060 1061 1061 1062 1063 1063 1063 1064 1064 1065 1065 1066 1067 1069 1074 1080 1087 1093 1097 1097 1091 1080 1062 1035 997 997 1005 1010 1010 1006 999 989 974 958 942 928 915 903 891 877 861 840 814 785 764 779 793 806 819 832 847 865 883 904 924 946 968 989 1009 1026 1040 1051 1061 1071 1079 1086 1091 1095 1097 1098 1097 1094 1091 1087 1082 1078 1075 1072 1069 1068 1068 1069 1070 1072 1074 1076 1078 1080 1083 1086 1089 1092 1095 1098 1099 1101 -9999 -9999 -9999 -9999 -9999 -9999 -9999 -9999 -9999 -9999 -9999 -9999 -9999 -9999 -9999 -9999 -9999 -9999 -9999 -9999 -9999 -9999 -9999 -9999 -9999 -9999 -9999
1612 1607 1602 1596 1590 1584 1579 1574 1570 1567 1564 1561 1558 1555 1552 1549 1545 1541 1537 1532 1527 1521 1514 1508 1502 1498 1494 1490 1487 1483 1478 1473 1467 1461 1454 1446 1431 1426 1418 1411 1400 1391 1385 1382 1373 1368 1365 1363 1360 1356 1352 1347 1342 1337 1332 1326 1321 1315 1309 1303 1297 1291 1285 1280 1274 1268 1261 1254 1247 1239 1232 1225 1219 1213 1206 1198 1190 1181 1172 1163 1154 1145 1135 1126 1116 1107 1099 1092 1085 1078 1071 1064 1055 1050 1046 1041 1044 1045 1049 1055 1061 1066 1070 1073 1075 1076 1077 1078 1079 1079 1080 1080 1080 1081 1081 1082 1085 1089 1095 1103 1110 1114 1115 1111 1102 1087 1064 1036 1015 1024 1031 1031 1027 1019 1007 990 972 953 937 922 908 895 881 864 845 821 792 763 771 784 796 808 822 838 855 875 895 915 936 957 978 997 1014 1029 1042 1054 1064 1074 1081 1087 1091 1094 1095 1094 1092 1088 1084 1080 1076 1072 1070 1068 1067 1067 1068 1070 1071 1074 1076 1078 1081 1083 1086 1089 1092 1095 1097 1098 -9999 -9999 -9999 -9999 -9999 -9999 -9999 -9999 -9999 -9999 -9999 -9999 -9999 -9999 -9999 -9999 -9999 -9999 -9999 -9999 -9999 -9999 -9999 -9999 -9999 -9999 -9999 -9999
1610 1605 1600 1594 1589 1583 1577 1572 1568 1564 1561 1557 1554 1551 1548 1545 1541 1537 1533 1529 1524 1518 1512 1506 1500 1495 1491 1488 1484 1481 1477 1472 1467 1461 1454 1446 1436 1429 1421 1412 1403 1394 1387 1382 1365 1361 1361 1360 1357 1354 1350 1345 1340 1334 1329 1324 1318 1313 1307 1301 1296 1290 1285 1280 1274 1268 1261 1254 1246 1238 1231 1225 1218 1212 1204 1196 1187 1178 1169 1160 1150 1140 1131 1121 1111 1102 1093 1086 1079 1072 1063 1059 1055 1056 1054 1053 1053 1054 1058 1064 1070 1076 1082 1086 1089 1091 1093 1094 1095 1095 1096 1096 1096 1096 1097 1098 1100 1104 1110 1117 1124 1129 1131 1128 1121 1108 1089 1063 1033 1044 1050 1051 1047 1038 1024 1005 984 963 944 928 913 898 884 867 848 825 797 759 759 774 786 799 813 829 847 867 888 908 928 948 966 984 1001 1016 1030 1043 1056 1067 1076 1082 1087 1090 1091 1090 1088 1086 1082 1078 1074 1070 1068 1066 1066 1067 1068 1070 1072 1074 1076 1079 1081 1084 1086 1089 1092 1094 1096 1097 -9999 -9999 -9999 -9999 -9999 -9999 -9999 -9999 -9999 -9999 -9999 -9999 -9999 -9999 -9999 -9999 -9999 -9999 -9999 -9999 -9999 -9999 -9999 -9999 -9999 -9999 -9999 -9999
1609 1604 1599 1593 1587 1582 1576 1571 1566 1562 1558 1554 1551 1547 1544 1541 1537 1534 1530 1526 1521 1515 1509 1503 1497 1492 1488 1485 1482 1479 1475 1471 1466 1461 1454 1447 1439 1430 1422 1413 1404 1396 1387 1379 1369 1361 1358 1356 1354 1351 1347 1342 1337 1332 1326 1321 1315 1310 1304 1299 1294 1289 1284 1279 1274 1267 1259 1252 1244 1237 1230 1223 1217 1210 1202 1194 1185 1175 1166 1156 1146 1136 1126 1116 1106 1096 1088 1080 1075 1068 1063 1064 1063 1063 1062 1061 1061 1062 1065 1071 1078 1086 1092 1098 1102 1106 1109 1110 1111 1111 1112 1112 1112 1112 1112 1113 1115 1118 1124 1130 1137 1142 1145 1143 1138 1127 1111 1089 1065 1065 1070 1070 1065 1055 1038 1017 994 971 950 932 916 902 887 871 852 831 805 777 757 767 779 791 805 822 841 861 882 902 921 939 956 972 987 1001 1016 1031 1045 1058 1069 1076 1082 1085 1086 1086 1085 1083 1079 1076 1072 1068 1066 1065 1065 1066 1068 1070 1072 1074 1077 1079 1082 1084 1086 1089 1091 1093 1095 1096 -9999 -9999 -9999 -9999 -9999 -9999 -9999 -9999 -9999 -9999 -9999 -9999 -9999 -9999 -9999 -9999 -9999 -9999 -9999 -9999 -9999 -9999 -9999 -9999 -9999 -9999 -9999 -9999
1608 1603 1597 1592 1586 1581 1575 1570 1565 1560 1556 1552 1548 1544 1540 1537 1533 1530 1526 1522 1517 1512 1507 1501 1495 1490 1485 1482 1479 1476 1473 1469 1464 1459 1453 1446 1438 1430 1421 1412 1403 1395 1386 1378 1369 1361 1354 1354 1351 1348 1343 1338 1334 1329 1323 1318 1313 1307 1302 1297 1292 1288 1283 1278 1272 1265 1257 1249 1241 1234 1228 1222 1215 1208 1200 1191 1182 1173 1163 1153 1143 1133 1122 1111 1101 1091 1082 1074 1072 1068 1070 1071 1071 1071 1070 1069 1068 1069 1072 1077 1085 1093 1101 1108 1114 1119 1123 1125 1127 1127 1127 1127 1128 1128 1128 1129 1130 1133 1137 1144 1150 1155 1158 1157 1153 1144 1131 1113 1091 1065 1090 1086 1080 1068 1050 1027 1001 976 955 936 919 904 889 873 855 835 811 783 752 760 771 783 798 815 834 855 876 896 915 931 945 959 973 987 1002 1018 1033 1048 1060 1069 1075 1079 1081 1082 1082 1080 1077 1074 1070 1067 1065 1064 1065 1066 1068 1071 1073 1075 1078 1080 1082 1084 1086 1088 1090 1092 1094 1095 -9999 -9999 -9999 -9999 -9999 -9999 -9999 -9999 -9999 -9999 -9999 -9999 -9999 -9999 -9999 -9999 -9999 -9999 -9999 -9999 -9999 -9999 -9999 -9999 -9999 -9999 -9999 -9999
1606 1601 1596 1591 1586 1580 1575 1569 1564 1559 1554 1550 1545 1541 1537 1533 1530 1526 1522 1518 1514 1509 1503 1498 1492 1487 1483 1479 1476 1473 1470 1466 1462 1457 1451 1443 1435 1427 1418 1409 1400 1392 1384 1375 1367 1360 1354 1349 1349 1344 1339 1335 1330 1326 1321 1316 1311 1306 1300 1295 1290 1286 1281 1275 1269 1261 1253 1246 1238 1231 1225 1219 1213 1206 1198 1189 1180 1170 1160 1150 1140 1129 1118 1107 1096 1086 1076 1074 1077 1077 1078 1079 1079 1078 1077 1076 1074 1075 1077 1083 1091 1099 1108 1116 1124 1131 1136 1140 1142 1143 1143 1143 1144 1144 1144 1145 1146 1148 1152 1158 1164 1169 1171 1171 1167 1160 1149 1136 1120 1105 1101 1101 1091 1078 1059 1033 1006 980 958 938 921 906 891 875 857 838 814 785 750 750 761 773 790 808 828 848 869 889 907 922 935 947 960 973 988 1004 1021 1036 1050 1060 1068 1073 1076 1078 1078 1077 1075 1071 1068 1065 1064 1063 1064 1066 1069 1071 1074 1076 1078 1080 1082 1084 1085 1087 1088 1090 1092 1093 1093 -9999 -9999 -9999 -9999 -9999 -9999 -9999 -9999 -9999 -9999 -9999 -9999 -9999 -9999 -9999 -9999 -9999 -9999 -9999 -9999 -9999 -9999 -9999 -9999 -9999 -9999 -9999
1604 1600 1595 1590 1585 1580 1574 1568 1563 1558 1553 1548 1543 1538 1534 1529 1525 1522 1518 1514 1510 1505 1500 1495 1489 1485 1481 1477 1474 1471 1468 1464 1459 1454 1447 1440 1432 1423 1414 1405 1396 1388 1380 1372 1365 1358 1352 1346 1340 1340 1334 1330 1327 1323 1319 1314 1309 1304 1299 1293 1288 1283 1277 1272 1265 1257 1249 1242 1235 1228 1222 1217 1211 1204 1196 1187 1178 1168 1158 1147 1137 1126 1114 1103 1091 1081 1076 1082 1085 1086 1087 1087 1086 1085 1084 1082 1080 1080 1082 1088 1096 1104 1113 1123 1132 1141 1147 1152 1155 1157 1158 1159 1160 1161 1161 1162 1163 1165 1168 1173 1178 1182 1185 1184 1180 1174 1165 1154 1142 1130 1120 1111 1100 1086 1064 1038 1009 982 959 939 922 907 892 876 858 839 816 790 763 746 750 759 779 800 821 842 862 881 897 912 924 936 948 960 975 991 1008 1024 1039 1051 1060 1066 1070 1073 1074 1074 1072 1069 1066 1064 1063 1063 1064 1066 1069 1072 1074 1077 1079 1080 1082 1083 1084 1085 1086 1088 1090 1092 1093 -9999 -9999 -9999 -9999 -9999 -9999 -9999 -9999 -9999 -9999 -9999 -9999 -9999 -9999 -9999 -9999 -9999 -9999 -9999 -9999 -9999 -9999 -9999 -9999 -9999 -9999 -9999
1602 1598 1594 1589 1585 1579 1573 1567 1561 1556 1552 1547 1541 1535 1530 1525 1520 1517 1514 1510 1506 1500 1495 1490 1486 1482 1478 1475 1472 1469 1465 1461 1457 1451 1444 1436 1427 1418 1409 1399 1391 1382 1375 1368 1361 1355 1349 1343 1336 1330 1328 1326 1323 1320 1317 1313 1308 1303 1297 1291 1285 1279 1273 1267 1260 1252 1245 1237 1230 1224 1219 1214 1208 1201 1194 1185 1175 1165 1155 1145 1134 1122 1110 1098 1085 1081 1086 1091 1093 1094 1095 1094 1093 1092 1090 1088 1085 1084 1087 1092 1100 1108 1118 1128 1138 1148 1156 1162 1167 1170 1173 1175 1176 1178 1178 1179 1180 1182 1185 1189 1193 1196 1198 1197 1193 1187 1179 1170 1159 1147 1136 1123 1109 1092 1069 1041 1012 984 960 939 922 906 891 875 858 839 817 793 767 740 735 732 765 792 814 834 853 871 887 900 913 925 937 949 964 980 997 1013 1028 1041 1051 1059 1065 1068 1070 1071 1069 1067 1065 1063 1062 1062 1064 1066 1069 1072 1075 1077 1079 1080 1081 1082 1082 1083 1085 1087 1088 1090 -9999 -9999 -9999 -9999 -9999 -9999 -9999 -9999 -9999 -9999 -9999 -9999 -9999 -9999 -9999 -9999 -9999 -9999 -9999 -9999 -9999 -9999 -9999 -9999 -9999 -9999 -9999 -9999
1601 1597 1593 1589 1585 1579 1573 1564 1558 1555 1552 1546 1541 1532 1528 1520 1514 1511 1510 1507 1502 1494 1489 1485 1481 1477 1474 1472 1469 1466 1463 1459 1454 1448 1440 1432 1422 1413 1403 1394 1386 1377 1370 1363 1357 1351 1345 1339 1332 1324 1324 1321 1319 1317 1314 1311 1306 1300 1294 1287 1281 1274 1268 1261 1254 1247 1239 1232 1226 1220 1215 1210 1204 1198 1190 1182 1172 1162 1152 1142 1131 1119 1106 1092 1092 1094 1097 1100 1102 1102 1102 1102 1101 1099 1096 1093 1090 1089 1091 1096 1103 1111 1121 1131 1142 1153 1162 1170 1176 1181 1186 1189 1192 1194 1195 1197 1198 1200 1202 1205 1208 1210 1210 1209 1205 1198 1190 1181 1171 1159 1146 1132 1115 1096 1072 1044 1014 986 961 939 922 906 891 875 858 839 817 795 772 752 740 731 757 784 807 826 844 860 875 889 902 914 927 940 954 970 986 1003 1018 1031 1043 1052 1059 1064 1067 1067 1066 1065 1063 1062 1061 1062 1064 1066 1069 1072 1074 1077 1078 1079 1080 1080 1081 1081 1083 1085 1087 1088 -9999 -9999 -9999 -9999 -9999 -9999 -9999 -9999 -9999 -9999 -9999 -9999 -9999 -9999 -9999 -9999 -9999 -9999 -9999 -9999 -9999 -9999 -9999 -9999 -9999 -9999 -9999 -9999
1601 1597 1593 1589 1585 1581 1576 1564 1562 1559 1555 1550 1545 1539 1533 1527 1520 1511 1508 1504 1499 1486 1482 1477 1475 1472 1469 1467 1465 1463 1460 1456 1450 1444 1437 1428 1418 1409 1399 1390 1381 1373 1365 1359 1353 1347 1342 1336 1330 1324 1321 1315 1314 1313 1310 1307 1303 1297 1290 1283 1275 1269 1262 1255 1248 1241 1234 1227 1221 1216 1211 1205 1200 1193 1186 1178 1169 1159 1149 1139 1128 1117 1104 1093 1101 1105 1108 1109 1110 1111 1110 1109 1108 1105 1102 1098 1095 1093 1094 1099 1106 1114 1123 1133 1144 1155 1165 1174 1182 1190 1196 1202 1206 1209 1212 1213 1215 1216 1218 1220 1222 1223 1222 1219 1214 1208 1199 1190 1178 1166 1152 1136 1118 1098 1074 1047 1017 988 962 940 922 906 890 875 858 839 818 796 776 757 742 729 747 774 798 818 834 849 863 877 891 904 918 931 946 961 978 993 1009 1023 1035 1046 1054 1060 1063 1064 1064 1063 1061 1061 1061 1062 1063 1066 1069 1071 1074 1076 1077 1078 1079 1079 1079 1080 1082 1084 1086 1087 -9999 -9999 -9999 -9999 -9999 -9999 -9999 -9999 -9999 -9999 -9999 -9999 -9999 -9999 -9999 -9999 -9999 -9999 -9999 -9999 -9999 -9999 -9999 -9999 -9999 -9999 -9999 -9999
1600 1597 1594 1591 1587 1584 1579 1572 1568 1564 1559 1555 1551 1546 1540 1534 1528 1521 1516 1510 1504 1495 1487 1477 1471 1465 1462 1460 1460 1458 1456 1452 1447 1441 1433 1424 1415 1405 1395 1386 1377 1369 1361 1355 1349 1343 1338 1332 1327 1322 1316 1309 1309 1308 1305 1302 1297 1291 1284 1277 1269 1262 1255 1248 1241 1234 1228 1222 1216 1211 1205 1200 1194 1188 1181 1174 1165 1156 1147 1137 1127 1115 1104 1108 1113 1116 1118 1119 1119 1119 1118 1117 1115 1112 1108 1103 1099 1097 1098 1102 1108 1115 1124 1134 1146 1157 1167 1177 1186 1195 1204 1211 1218 1223 1226 1228 1230 1231 1233 1234 1234 1233 1231 1228 1222 1215 1206 1195 1183 1169 1154 1137 1119 1098 1075 1048 1019 990 963 941 922 906 891 875 858 840 819 798 778 760 744 727 727 761 787 807 823 838 852 866 880 895 909 924 939 954 970 985 1000 1015 1028 1040 1049 1055 1059 1061 1061 1061 1060 1060 1060 1061 1063 1065 1068 1071 1073 1075 1076 1077 1077 1078 1078 1079 1081 1084 1086 1087 -9999 -9999 -9999 -9999 -9999 -9999 -9999 -9999 -9999 -9999 -9999 -9999 -9999 -9999 -9999 -9999 -9999 -9999 -9999 -9999 -9999 -9999 -9999 -9999 -9999 -9999 -9999 -9999
1601 1598 1595 1593 1590 1587 1583 1578 1574 1569 1565 1561 1557 1552 1547 1542 1536 1530 1524 1517 1510 1502 1493 1484 1476 1469 1462 1451 1454 1453 1451 1447 1443 1436 1429 1420 1411 1401 1391 1382 1373 1365 1358 1351 1345 1339 1334 1329 1324 1319 1313 1308 1304 1303 1299 1295 1290 1284 1277 1269 1262 1255 1247 1241 1234 1228 1222 1216 1210 1205 1199 1194 1188 1182 1176 1169 1162 1153 1144 1135 1126 1115 1119 1122 1125 1127 1128 1129 1129 1128 1126 1124 1121 1117 1112 1107 1103 1100 1101 1105 1110 1117 1125 1135 1146 1157 1168 1178 1189 1199 1209 1219 1226 1233 1237 1241 1243 1244 1245 1245 1244 1242 1239 1234 1228 1220 1210 1198 1185 1170 1153 1135 1117 1096 1073 1046 1018 990 964 942 923 906 891 876 860 841 821 800 781 763 747 732 724 752 775 794 811 826 840 854 869 884 900 916 931 947 962 978 993 1007 1021 1033 1043 1050 1056 1058 1059 1059 1059 1059 1060 1061 1063 1065 1068 1070 1072 1074 1075 1076 1076 1077 1078 1079 1081 1084 1086 1087 -9999 -9999 -9999 -9999 -9999 -9999 -9999 -9999 -9999 -9999 -9999 -9999 -9999 -9999 -9999 -9999 -9999 -9999 -9999 -9999 -9999 -9999 -9999 -9999 -9999 -9999 -9999 -9999
1602 1600 1598 1596 1594 1591 1588 1583 1579 1574 1570 1566 1563 1559 1554 1549 1544 1538 1531 1524 1517 1508 1499 1490 1481 1472 1463 1451 1451 1447 1445 1442 1437 1431 1424 1416 1407 1397 1387 1378 1369 1361 1354 1348 1342 1336 1330 1325 1320 1315 1309 1304 1299 1299 1291 1286 1280 1274 1267 1260 1253 1246 1239 1232 1226 1220 1215 1209 1204 1198 1191 1186 1180 1175 1170 1165 1158 1150 1141 1132 1132 1131 1133 1135 1137 1138 1138 1138 1138 1137 1134 1131 1127 1122 1116 1111 1106 1104 1105 1108 1112 1119 1127 1136 1147 1158 1168 1179 1190 1201 1212 1223 1232 1240 1245 1250 1252 1253 1254 1253 1251 1247 1243 1238 1231 1223 1212 1200 1185 1168 1150 1132 1113 1092 1068 1043 1016 989 964 942 924 908 893 878 862 844 824 804 785 767 750 732 715 741 761 775 798 813 827 841 856 871 889 907 924 940 955 970 985 999 1012 1023 1034 1044 1051 1055 1057 1057 1058 1059 1060 1061 1063 1065 1067 1070 1072 1073 1074 1075 1076 1077 1078 1079 1082 1084 1086 1088 -9999 -9999 -9999 -9999 -9999 -9999 -9999 -9999 -9999 -9999 -9999 -9999 -9999 -9999 -9999 -9999 -9999 -9999 -9999 -9999 -9999 -9999 -9999 -9999 -9999 -9999 -9999 -9999
1602 1601 1600 1599 1597 1595 1592 1588 1583 1579 1575 1571 1567 1564 1560 1555 1550 1544 1538 1530 1522 1513 1504 1494 1485 1475 1465 1454 1441 1436 1437 1435 1430 1424 1417 1410 1401 1392 1383 1373 1365 1357 1351 1344 1338 1332 1327 1321 1316 1311 1305 1298 1293 1290 1280 1274 1269 1263 1257 1251 1244 1237 1230 1223 1217 1211 1206 1201 1195 1189 1181 1175 1170 1167 1164 1160 1154 1146 1138 1138 1141 1143 1145 1146 1147 1148 1148 1147 1146 1144 1142 1137 1132 1126 1120 1115 1111 1109 1109 1112 1116 1121 1128 1137 1147 1158 1168 1179 1190 1202 1214 1225 1235 1244 1250 1255 1258 1260 1260 1258 1255 1250 1245 1239 1232 1224 1213 1200 1184 1166 1147 1128 1107 1086 1063 1038 1012 986 963 942 925 910 896 882 866 849 830 810 791 772 753 733 713 733 747 745 789 802 815 829 841 853 876 896 915 933 948 962 976 988 999 1009 1022 1035 1046 1051 1054 1056 1057 1058 1060 1061 1063 1065 1067 1070 1072 1073 1075 1076 1077 1078 1079 1081 1083 1085 1087 1089 -9999 -9999 -9999 -9999 -9999 -9999 -9999 -9999 -9999 -9999 -9999 -9999 -9999 -9999 -9999 -9999 -9999 -9999 -9999 -9999 -9999 -9999 -9999 -9999 -9999 -9999 -9999 -9999
1602 1602 1601 1601 1599 1597 1594 1590 1586 1582 1577 1574 1570 1567 1563 1559 1554 1549 1542 1535 1526 1517 1507 1497 1487 1478 1468 1458 1447 1436 1433 1430 1423 1416 1409 1402 1394 1385 1377 1368 1360 1353 1347 1341 1334 1328 1322 1317 1313 1307 1299 1289 1283 1271 1265 1260 1257 1251 1246 1241 1233 1226 1219 1212 1206 1200 1195 1191 1186 1179 1167 1163 1158 1157 1157 1156 1151 1146 1148 1149 1152 1154 1155 1156 1157 1157 1157 1156 1154 1152 1148 1143 1137 1131 1125 1120 1116 1115 1115 1117 1120 1125 1131 1139 1148 1157 1168 1178 1190 1202 1214 1226 1236 1246 1253 1259 1262 1263 1262 1260 1256 1251 1245 1239 1232 1223 1212 1198 1182 1163 1144 1124 1103 1081 1057 1032 1007 984 962 944 928 914 900 886 871 854 836 817 797 778 757 735 712 729 745 745 775 797 815 830 843 853 866 884 907 925 941 953 964 975 983 988 1007 1026 1045 1049 1052 1055 1056 1058 1060 1062 1064 1066 1068 1071 1073 1075 1077 1078 1079 1080 1081 1082 1085 1087 1089 1090 -9999 -9999 -9999 -9999 -9999 -9999 -9999 -9999 -9999 -9999 -9999 -9999 -9999 -9999 -9999 -9999 -9999 -9999 -9999 -9999 -9999 -9999 -9999 -9999 -9999 -9999 -9999 -9999
1599 1600 1600 1600 1599 1598 1595 1591 1587 1583 1579 1575 1571 1568 1564 1561 1556 1551 1545 1538 1529 1520 1509 1499 1489 1480 1470 1461 1452 1442 1433 1429 1413 1405 1401 1393 1387 1378 1371 1363 1353 1348 1344 1338 1330 1323 1316 1313 1310 1305 1295 1289 1285 1278 1270 1260 1246 1239 1234 1232 1222 1214 1207 1200 1193 1186 1183 1180 1176 1172 1167 1168 1167 1165 1164 1162 1160 1157 1158 1159 1161 1163 1164 1165 1165 1165 1164 1163 1161 1157 1153 1148 1142 1135 1129 1125 1123 1121 1121 1123 1125 1129 1134 1141 1149 1158 1167 1178 1190 1202 1214 1226 1237 1246 1254 1260 1263 1264 1263 1260 1255 1250 1244 1238 1231 1222 1211 1197 1180 1161 1141 1120 1099 1077 1053 1029 1005 983 963 947 932 918 904 891 876 860 842 823 803 783 761 737 709 726 726 745 770 794 815 833 848 860 873 884 901 919 936 944 952 960 969 988 1009 1026 1039 1046 1050 1053 1056 1058 1060 1063 1065 1067 1070 1073 1075 1077 1079 1080 1081 1082 1083 1085 1087 1089 1091 1092 -9999 -9999 -9999 -9999 -9999 -9999 -9999 -9999 -9999 -9999 -9999 -9999 -9999 -9999 -9999 -9999 -9999 -9999 -9999 -9999 -9999 -9999 -9999 -9999 -9999 -9999 -9999 -9999
1592 1593 1594 1595 1596 1595 1593 1590 1586 1582 1578 1575 1571 1567 1564 1560 1557 1552 1546 1539 1531 1522 1511 1501 1491 1481 1472 1464 1456 1448 1440 1433 1424 1416 1410 1402 1394 1386 1378 1370 1361 1354 1348 1341 1334 1327 1321 1317 1313 1308 1301 1296 1291 1285 1277 1268 1258 1250 1244 1238 1231 1224 1217 1210 1204 1198 1193 1189 1185 1181 1178 1176 1174 1173 1171 1169 1167 1166 1166 1167 1168 1170 1171 1172 1172 1171 1170 1168 1165 1161 1157 1151 1145 1139 1134 1131 1129 1128 1128 1129 1131 1134 1138 1143 1150 1159 1168 1178 1190 1202 1214 1226 1237 1246 1254 1260 1263 1264 1262 1259 1254 1248 1242 1236 1229 1220 1209 1195 1178 1159 1139 1118 1096 1074 1051 1027 1005 984 966 950 936 922 908 894 879 863 845 826 807 786 764 739 707 707 718 739 764 790 814 834 852 866 880 893 909 924 939 951 962 972 984 999 1014 1027 1037 1043 1048 1051 1055 1058 1060 1063 1066 1069 1072 1075 1078 1080 1082 1083 1084 1085 1086 1087 1089 1091 1092 1093 -9999 -9999 -9999 -9999 -9999 -9999 -9999 -9999 -9999 -9999 -9999 -9999 -9999 -9999 -9999 -9999 -9999 -9999 -9999 -9999 -9999 -9999 -9999 -9999 -9999 -9999 -9999 -9999
1580 1581 1583 1585 1587 1588 1587 1586 1583 1581 1577 1573 1569 1566 1562 1559 1556 1552 1547 1540 1532 1523 1513 1502 1492 1483 1474 1466 1459 1452 1446 1440 1432 1425 1418 1410 1402 1393 1384 1376 1367 1359 1352 1345 1337 1331 1325 1320 1316 1311 1306 1302 1297 1291 1284 1276 1268 1260 1253 1246 1240 1233 1227 1221 1214 1209 1203 1198 1194 1190 1187 1184 1181 1179 1177 1175 1173 1172 1172 1172 1173 1175 1176 1177 1177 1176 1174 1172 1168 1164 1159 1153 1147 1142 1138 1136 1134 1133 1133 1134 1135 1137 1141 1146 1152 1160 1169 1179 1190 1202 1213 1225 1236 1246 1254 1260 1263 1263 1261 1257 1251 1245 1239 1233 1226 1218 1207 1193 1177 1158 1138 1117 1095 1073 1051 1028 1007 987 970 954 939 924 910 895 880 864 846 828 808 789 768 745 722 703 700 728 756 784 810 834 854 871 887 901 915 930 944 958 971 983 994 1006 1017 1026 1033 1039 1043 1047 1052 1056 1059 1063 1066 1070 1074 1077 1080 1082 1084 1086 1087 1087 1088 1089 1091 1093 1094 1095 -9999 -9999 -9999 -9999 -9999 -9999 -9999 -9999 -9999 -9999 -9999 -9999 -9999 -9999 -9999 -9999 -9999 -9999 -9999 -9999 -9999 -9999 -9999 -9999 -9999 -9999 -9999 -9999
1564 1565 1567 1570 1573 1575 1577 1578 1578 1577 1575 1571 1568 1564 1561 1558 1555 1551 1546 1540 1533 1524 1514 1504 1494 1484 1476 1468 1462 1456 1451 1445 1439 1431 1424 1416 1408 1399 1390 1381 1372 1363 1355 1348 1341 1334 1328 1323 1319 1315 1311 1307 1302 1297 1291 1283 1275 1268 1261 1254 1248 1242 1235 1229 1223 1217 1211 1206 1201 1197 1194 1191 1187 1185 1182 1179 1177 1176 1175 1175 1176 1177 1179 1180 1180 1179 1177 1173 1169 1164 1158 1153 1148 1143 1140 1137 1136 1135 1135 1135 1136 1138 1142 1146 1152 1160 1169 1179 1190 1201 1213 1224 1235 1245 1253 1258 1261 1261 1259 1254 1248 1242 1236 1230 1224 1216 1205 1192 1176 1157 1137 1116 1094 1072 1051 1030 1010 991 973 957 941 925 910 895 879 863 845 827 808 790 770 750 729 711 695 714 744 775 804 831 854 875 892 908 922 937 951 965 978 990 1000 1009 1017 1023 1027 1031 1036 1041 1046 1052 1056 1061 1065 1070 1074 1078 1081 1084 1086 1088 1089 1090 1091 1092 1093 1095 1096 1096 -9999 -9999 -9999 -9999 -9999 -9999 -9999 -9999 -9999 -9999 -9999 -9999 -9999 -9999 -9999 -9999 -9999 -9999 -9999 -9999 -9999 -9999 -9999 -9999 -9999 -9999 -9999 -9999
1545 1546 1547 1550 1554 1559 1563 1567 1571 1573 1571 1569 1566 1562 1559 1557 1554 1550 1546 1541 1534 1525 1516 1506 1496 1486 1478 1470 1464 1459 1454 1449 1443 1436 1428 1420 1412 1403 1394 1385 1375 1366 1358 1350 1343 1337 1331 1326 1322 1318 1315 1311 1307 1302 1296 1289 1282 1275 1268 1261 1255 1249 1243 1236 1230 1223 1217 1212 1208 1204 1200 1196 1192 1188 1185 1182 1179 1177 1175 1175 1176 1177 1179 1180 1180 1179 1176 1172 1168 1162 1156 1151 1146 1142 1138 1136 1134 1133 1133 1133 1134 1136 1140 1145 1152 1160 1170 1179 1190 1201 1212 1223 1234 1244 1251 1257 1259 1259 1256 1251 1245 1239 1233 1227 1221 1213 1203 1191 1175 1157 1137 1115 1094 1072 1052 1032 1013 994 976 958 942 925 909 894 878 862 844 826 807 789 771 752 733 714 693 690 729 763 795 825 853 877 897 914 930 944 959 972 985 995 1003 1009 1013 1016 1018 1021 1025 1031 1038 1044 1050 1056 1062 1067 1073 1078 1081 1084 1087 1089 1091 1092 1093 1094 1095 1096 1097 1097 -9999 -9999 -9999 -9999 -9999 -9999 -9999 -9999 -9999 -9999 -9999 -9999 -9999 -9999 -9999 -9999 -9999 -9999 -9999 -9999 -9999 -9999 -9999 -9999 -9999 -9999 -9999 -9999
1526 1526 1527 1529 1533 1539 1544 1555 1563 1567 1567 1566 1563 1561 1558 1556 1553 1550 1546 1541 1535 1526 1517 1507 1498 1488 1480 1473 1466 1461 1457 1452 1445 1438 1430 1423 1415 1406 1397 1387 1378 1369 1360 1352 1345 1339 1333 1329 1325 1321 1318 1314 1310 1306 1300 1294 1287 1280 1273 1267 1261 1255 1249 1242 1235 1229 1223 1218 1213 1209 1204 1200 1196 1191 1187 1182 1179 1176 1174 1173 1173 1175 1176 1178 1178 1177 1174 1170 1164 1159 1153 1147 1142 1138 1134 1131 1129 1128 1128 1128 1130 1133 1137 1143 1151 1160 1169 1179 1190 1200 1211 1222 1233 1242 1250 1255 1257 1256 1253 1248 1242 1235 1230 1224 1218 1211 1201 1189 1174 1156 1136 1115 1093 1072 1052 1034 1015 996 978 960 942 925 909 893 877 861 843 824 806 788 771 753 735 716 699 687 718 751 784 817 849 876 900 919 936 952 966 979 991 999 1004 1007 1008 1008 1008 1009 1013 1019 1026 1034 1041 1049 1056 1063 1070 1076 1081 1085 1088 1090 1092 1094 1095 1096 1097 1098 1098 -9999 -9999 -9999 -9999 -9999 -9999 -9999 -9999 -9999 -9999 -9999 -9999 -9999 -9999 -9999 -9999 -9999 -9999 -9999 -9999 -9999 -9999 -9999 -9999 -9999 -9999 -9999 -9999 -9999
1507 1507 1507 1507 1507 1518 1518 1541 1555 1561 1562 1561 1560 1558 1556 1555 1553 1550 1547 1542 1536 1528 1519 1509 1499 1490 1482 1474 1468 1464 1459 1454 1447 1440 1432 1424 1416 1408 1399 1389 1379 1370 1361 1354 1347 1340 1335 1331 1327 1323 1320 1316 1313 1308 1303 1298 1291 1285 1278 1272 1266 1260 1254 1247 1240 1234 1228 1222 1218 1213 1208 1203 1198 1193 1187 1182 1177 1173 1171 1169 1169 1169 1171 1172 1172 1172 1169 1165 1160 1155 1149 1143 1138 1133 1129 1126 1123 1122 1122 1123 1126 1129 1134 1141 1150 1159 1169 1179 1189 1200 1210 1221 1231 1240 1248 1253 1255 1254 1250 1245 1239 1233 1227 1221 1215 1208 1199 1187 1172 1154 1134 1113 1092 1071 1052 1033 1015 997 978 961 943 927 910 894 878 861 843 825 806 788 771 753 735 717 700 685 705 737 772 807 841 872 898 921 940 958 973 985 995 1001 1004 1004 1002 999 997 997 1000 1005 1013 1021 1030 1039 1048 1057 1066 1074 1080 1084 1088 1091 1094 1096 1097 1098 1099 1099 1099 -9999 -9999 -9999 -9999 -9999 -9999 -9999 -9999 -9999 -9999 -9999 -9999 -9999 -9999 -9999 -9999 -9999 -9999 -9999 -9999 -9999 -9999 -9999 -9999 -9999 -9999 -9999 -9999 -9999
1489 1489 1488 1485 1472 1495 1514 1535 1548 1554 1555 1554 1555 1555 1554 1553 1552 1550 1547 1543 1537 1529 1520 1511 1501 1492 1484 1477 1471 1466 1461 1455 1449 1441 1434 1426 1418 1409 1400 1390 1381 1371 1362 1354 1347 1341 1336 1332 1328 1324 1321 1318 1315 1311 1306 1301 1295 1288 1282 1276 1270 1264 1258 1251 1245 1238 1232 1226 1221 1216 1211 1205 1200 1194 1188 1182 1177 1171 1167 1165 1163 1163 1163 1164 1165 1165 1163 1160 1156 1150 1145 1139 1133 1128 1124 1120 1118 1117 1117 1119 1122 1127 1133 1140 1149 1158 1168 1179 1189 1199 1210 1220 1230 1239 1246 1251 1253 1252 1248 1243 1237 1231 1225 1218 1212 1205 1196 1184 1169 1151 1132 1111 1090 1069 1050 1031 1013 996 978 961 945 929 913 897 881 863 845 827 808 790 772 754 735 716 698 683 680 720 758 793 828 861 890 916 938 958 975 988 997 1002 1003 1000 996 990 986 985 987 993 1000 1008 1017 1027 1038 1050 1061 1071 1078 1084 1088 1092 1095 1097 1099 1100 1100 1100 1100 -9999 -9999 -9999 -9999 -9999 -9999 -9999 -9999 -9999 -9999 -9999 -9999 -9999 -9999 -9999 -9999 -9999 -9999 -9999 -9999 -9999 -9999 -9999 -9999 -9999 -9999 -9999 -9999 -9999
1470 1471 1471 1472 1472 1489 1508 1526 1538 1543 1544 1545 1547 1549 1550 1551 1551 1550 1548 1544 1538 1531 1522 1513 1503 1494 1486 1479 1473 1468 1463 1457 1451 1443 1436 1428 1420 1411 1402 1392 1382 1372 1363 1355 1348 1342 1336 1332 1328 1325 1322 1319 1316 1312 1308 1303 1297 1292 1285 1279 1273 1267 1261 1255 1248 1242 1235 1229 1224 1218 1212 1207 1201 1196 1190 1183 1177 1171 1166 1161 1158 1156 1156 1156 1157 1158 1157 1155 1152 1147 1141 1135 1129 1124 1119 1115 1113 1113 1114 1117 1121 1127 1133 1140 1149 1158 1168 1178 1188 1199 1209 1219 1228 1237 1244 1249 1251 1250 1247 1242 1236 1230 1223 1217 1210 1202 1192 1180 1165 1148 1128 1108 1087 1066 1047 1028 1010 993 976 961 946 931 916 900 884 867 849 831 813 794 775 755 734 713 693 675 667 707 743 778 811 843 874 902 928 951 970 986 995 1000 1000 995 988 981 975 973 975 980 987 995 1004 1016 1029 1043 1056 1067 1076 1083 1088 1092 1096 1098 1100 1101 1101 1101 -9999 -9999 -9999 -9999 -9999 -9999 -9999 -9999 -9999 -9999 -9999 -9999 -9999 -9999 -9999 -9999 -9999 -9999 -9999 -9999 -9999 -9999 -9999 -9999 -9999 -9999 -9999 -9999 -9999 -9999
1452 1453 1453 1450 1463 1480 1497 1512 1521 1526 1529 1531 1536 1540 1544 1547 1549 1550 1549 1546 1540 1533 1524 1515 1506 1497 1488 1481 1475 1470 1465 1459 1453 1446 1438 1430 1422 1413 1404 1394 1384 1374 1365 1356 1349 1342 1337 1332 1328 1325 1322 1319 1316 1313 1309 1305 1300 1294 1289 1283 1277 1271 1265 1258 1252 1245 1238 1232 1226 1220 1214 1208 1203 1197 1191 1185 1179 1173 1166 1160 1155 1151 1149 1149 1150 1151 1151 1150 1147 1143 1138 1132 1126 1120 1115 1112 1110 1110 1113 1117 1121 1127 1134 1141 1149 1157 1167 1177 1187 1198 1208 1217 1227 1235 1242 1247 1249 1248 1246 1242 1236 1230 1223 1216 1207 1198 1188 1175 1160 1143 1124 1104 1082 1061 1041 1022 1004 987 972 958 945 932 918 903 888 871 854 836 818 800 780 757 733 708 683 658 658 697 730 761 791 821 850 879 908 934 958 977 989 995 995 989 981 972 964 962 963 968 975 983 992 1005 1019 1035 1050 1064 1075 1083 1088 1093 1096 1099 1101 1101 -9999 -9999 -9999 -9999 -9999 -9999 -9999 -9999 -9999 -9999 -9999 -9999 -9999 -9999 -9999 -9999 -9999 -9999 -9999 -9999 -9999 -9999 -9999 -9999 -9999 -9999 -9999 -9999 -9999 -9999 -9999 -9999
1434 1437 1439 1440 1452 1466 1479 1491 1499 1505 1510 1515 1521 1528 1535 1540 1545 1548 1549 1546 1542 1535 1527 1518 1509 1499 1490 1483 1476 1471 1466 1461 1455 1448 1441 1433 1424 1415 1406 1396 1386 1376 1367 1358 1351 1344 1338 1333 1329 1325 1322 1319 1317 1314 1310 1307 1302 1297 1292 1286 1280 1274 1268 1262 1255 1248 1241 1234 1227 1221 1215 1209 1203 1198 1193 1187 1181 1175 1168 1161 1155 1149 1145 1143 1143 1144 1145 1145 1143 1140 1135 1129 1123 1117 1113 1109 1108 1109 1112 1117 1122 1128 1135 1141 1148 1156 1165 1175 1186 1196 1206 1216 1225 1233 1239 1244 1247 1247 1245 1242 1238 1231 1224 1214 1205 1194 1183 1170 1155 1138 1118 1098 1076 1054 1033 1013 996 980 966 953 941 930 917 904 890 874 858 841 824 804 783 758 731 702 673 656 669 694 720 746 771 797 824 852 881 910 938 960 977 986 987 982 973 962 954 950 951 956 963 971 981 995 1011 1028 1045 1060 1072 1082 1089 1094 1097 1100 1101 1102 -9999 -9999 -9999 -9999 -9999 -9999 -9999 -9999 -9999 -9999 -9999 -9999 -9999 -9999 -9999 -9999 -9999 -9999 -9999 -9999 -9999 -9999 -9999 -9999 -9999 -9999 -9999 -9999 -9999 -9999 -9999 -9999
1418 1421 1425 1425 1437 1449 1459 1466 1471 1480 1488 1495 1504 1513 1521 1530 1538 1544 1546 1546 1542 1537 1529 1520 1511 1501 1491 1482 1476 1472 1467 1463 1457 1450 1443 1435 1426 1417 1408 1399 1389 1379 1370 1361 1353 1346 1339 1334 1329 1326 1323 1320 1317 1315 1312 1309 1305 1300 1295 1289 1283 1277 1271 1264 1257 1250 1243 1236 1228 1221 1215 1208 1203 1197 1192 1187 1182 1176 1170 1162 1155 1148 1143 1139 1138 1138 1139 1140 1139 1136 1132 1126 1121 1115 1110 1107 1107 1109 1112 1117 1123 1129 1135 1141 1147 1155 1164 1173 1184 1194 1204 1213 1222 1230 1237 1242 1245 1247 1246 1244 1239 1233 1224 1213 1201 1189 1177 1163 1148 1131 1111 1089 1066 1043 1022 1002 985 970 957 945 934 924 913 901 888 874 859 843 826 807 784 758 728 693 650 650 669 689 711 733 755 777 800 825 853 882 912 938 958 971 976 973 965 953 943 938 937 942 949 958 970 985 1002 1021 1039 1056 1070 1081 1088 1094 1098 1100 1102 -9999 -9999 -9999 -9999 -9999 -9999 -9999 -9999 -9999 -9999 -9999 -9999 -9999 -9999 -9999 -9999 -9999 -9999 -9999 -9999 -9999 -9999 -9999 -9999 -9999 -9999 -9999 -9999 -9999 -9999 -9999 -9999 -9999
1402 1405 1406 1413 1422 1431 1438 1440 1434 1454 1466 1475 1484 1494 1504 1515 1526 1535 1541 1543 1541 1537 1530 1522 1512 1500 1488 1478 1473 1470 1467 1463 1457 1451 1444 1436 1427 1419 1410 1401 1391 1382 1373 1364 1356 1348 1341 1336 1331 1327 1324 1321 1319 1317 1314 1311 1307 1303 1298 1292 1287 1280 1274 1267 1260 1252 1245 1237 1229 1221 1214 1207 1201 1196 1191 1186 1181 1175 1169 1162 1155 1147 1141 1136 1133 1133 1134 1134 1134 1132 1128 1123 1118 1112 1108 1105 1106 1108 1113 1118 1123 1128 1134 1139 1145 1152 1161 1171 1181 1191 1201 1211 1219 1227 1234 1240 1244 1247 1248 1246 1242 1235 1224 1212 1198 1184 1170 1156 1140 1122 1101 1079 1055 1031 1009 989 972 957 945 933 923 913 903 892 880 868 855 840 824 805 782 756 724 689 648 654 668 685 703 722 741 761 781 803 827 855 884 912 934 951 959 960 954 943 932 925 922 926 933 944 959 976 995 1014 1033 1051 1067 1079 1088 1094 1098 1101 1102 -9999 -9999 -9999 -9999 -9999 -9999 -9999 -9999 -9999 -9999 -9999 -9999 -9999 -9999 -9999 -9999 -9999 -9999 -9999 -9999 -9999 -9999 -9999 -9999 -9999 -9999 -9999 -9999 -9999 -9999 -9999 -9999 -9999
1388 1390 1391 1399 1408 1415 1420 1422 1422 1435 1445 1454 1463 1473 1485 1497 1510 1523 1532 1537 1538 1536 1530 1521 1510 1497 1481 1468 1464 1464 1463 1460 1456 1450 1443 1435 1427 1419 1411 1402 1394 1385 1376 1367 1359 1351 1344 1338 1333 1329 1326 1323 1321 1319 1316 1314 1310 1306 1301 1296 1290 1284 1277 1269 1262 1254 1246 1238 1229 1221 1213 1206 1200 1194 1188 1183 1178 1173 1167 1160 1153 1146 1139 1133 1129 1128 1128 1129 1128 1126 1124 1119 1115 1110 1106 1104 1105 1108 1113 1118 1123 1127 1131 1136 1142 1149 1158 1168 1178 1189 1199 1208 1217 1226 1233 1239 1245 1249 1251 1249 1245 1237 1225 1211 1195 1180 1165 1149 1131 1112 1090 1067 1043 1018 996 976 959 944 931 920 909 899 889 878 867 856 844 832 817 799 777 750 720 685 644 651 664 679 695 712 729 747 766 785 807 831 858 884 907 925 937 941 939 930 919 911 907 909 916 929 947 967 988 1009 1028 1047 1063 1077 1086 1093 1098 1101 1102 -9999 -9999 -9999 -9999 -9999 -9999 -9999 -9999 -9999 -9999 -9999 -9999 -9999 -9999 -9999 -9999 -9999 -9999 -9999 -9999 -9999 -9999 -9999 -9999 -9999 -9999 -9999 -9999 -9999 -9999 -9999 -9999 -9999
1376 1376 1376 1385 1393 1399 1404 1407 1410 1417 1425 1433 1442 1451 1463 1475 1490 1505 1519 1527 1531 1531 1526 1518 1506 1489 1468 1444 1449 1454 1456 1454 1451 1445 1438 1431 1423 1417 1410 1403 1395 1387 1378 1370 1362 1354 1347 1341 1336 1332 1329 1326 1324 1322 1319 1317 1313 1309 1305 1299 1293 1286 1279 1272 1264 1256 1247 1239 1230 1221 1213 1205 1198 1192 1186 1180 1175 1169 1163 1157 1150 1143 1136 1130 1126 1123 1123 1123 1122 1121 1119 1115 1111 1107 1103 1102 1104 1108 1113 1118 1122 1125 1128 1132 1138 1145 1154 1165 1175 1186 1196 1207 1216 1225 1232 1240 1246 1251 1254 1253 1248 1239 1226 1211 1194 1178 1162 1143 1123 1102 1079 1055 1031 1006 984 964 946 931 918 906 894 884 873 862 851 840 829 818 805 788 767 743 715 682 642 642 657 672 687 702 719 736 753 770 790 811 834 858 879 897 911 919 920 915 905 896 891 893 901 916 936 958 981 1003 1023 1041 1059 1073 1084 1092 1097 1101 1102 -9999 -9999 -9999 -9999 -9999 -9999 -9999 -9999 -9999 -9999 -9999 -9999 -9999 -9999 -9999 -9999 -9999 -9999 -9999 -9999 -9999 -9999 -9999 -9999 -9999 -9999 -9999 -9999 -9999 -9999 -9999 -9999 -9999
1363 1363 1363 1372 1379 1385 1389 1391 1391 1399 1405 1412 1419 1428 1439 1452 1467 1484 1500 1512 1519 1521 1518 1510 1497 1478 1451 1418 1432 1442 1445 1445 1441 1436 1430 1423 1416 1411 1406 1401 1395 1388 1380 1373 1365 1357 1351 1345 1340 1336 1332 1330 1327 1325 1323 1320 1317 1313 1308 1302 1296 1289 1282 1274 1266 1257 1249 1240 1230 1221 1213 1205 1198 1191 1184 1178 1172 1166 1160 1154 1147 1140 1133 1127 1122 1119 1118 1117 1117 1115 1114 1111 1108 1104 1101 1100 1103 1107 1112 1117 1120 1122 1124 1128 1133 1141 1151 1161 1172 1183 1194 1205 1215 1224 1233 1241 1248 1254 1257 1257 1252 1242 1229 1214 1197 1181 1163 1143 1119 1095 1070 1045 1020 996 974 954 936 921 907 894 882 871 859 847 835 823 813 803 791 776 757 735 711 684 657 641 651 664 678 693 708 725 741 757 775 793 813 833 852 870 884 894 898 896 890 882 877 879 888 903 925 949 974 996 1016 1035 1053 1068 1080 1089 1095 1100 1102 -9999 -9999 -9999 -9999 -9999 -9999 -9999 -9999 -9999 -9999 -9999 -9999 -9999 -9999 -9999 -9999 -9999 -9999 -9999 -9999 -9999 -9999 -9999 -9999 -9999 -9999 -9999 -9999 -9999 -9999 -9999 -9999 -9999
1350 1352 1352 1360 1366 1371 1374 1376 1378 1382 1387 1391 1396 1402 1414 1427 1443 1459 1476 1491 1500 1505 1504 1497 1484 1462 1433 1404 1417 1428 1432 1431 1428 1423 1416 1410 1405 1402 1399 1396 1392 1387 1382 1375 1368 1361 1354 1349 1344 1340 1336 1334 1331 1329 1326 1323 1320 1316 1311 1305 1298 1291 1284 1276 1268 1259 1250 1241 1231 1222 1214 1206 1199 1191 1184 1177 1171 1165 1158 1151 1144 1137 1131 1125 1120 1116 1113 1112 1111 1110 1109 1107 1104 1101 1099 1099 1102 1106 1111 1114 1116 1118 1120 1123 1128 1136 1147 1158 1169 1180 1191 1202 1213 1224 1234 1243 1250 1257 1260 1260 1256 1247 1234 1220 1204 1188 1170 1147 1120 1092 1064 1037 1012 988 966 946 928 912 898 885 873 861 848 835 821 809 798 788 776 763 747 728 707 683 659 634 643 654 668 682 697 713 729 744 760 776 793 810 828 844 858 870 876 877 873 867 864 867 876 893 915 940 965 988 1009 1028 1045 1060 1073 1084 1092 1098 1101 1102 -9999 -9999 -9999 -9999 -9999 -9999 -9999 -9999 -9999 -9999 -9999 -9999 -9999 -9999 -9999 -9999 -9999 -9999 -9999 -9999 -9999 -9999 -9999 -9999 -9999 -9999 -9999 -9999 -9999 -9999 -9999 -9999
1339 1341 1343 1348 1353 1358 1361 1362 1364 1366 1369 1371 1372 1372 1391 1404 1418 1434 1450 1466 1478 1485 1487 1481 1466 1440 1408 1390 1402 1413 1417 1416 1412 1406 1400 1394 1391 1390 1389 1389 1388 1385 1382 1377 1370 1364 1358 1352 1348 1344 1341 1338 1335 1333 1330 1327 1323 1319 1314 1308 1301 1294 1286 1279 1270 1261 1252 1242 1233 1224 1216 1208 1200 1193 1185 1178 1171 1165 1158 1151 1143 1136 1130 1124 1118 1114 1111 1108 1107 1106 1105 1103 1101 1099 1097 1097 1100 1104 1108 1111 1112 1113 1114 1117 1123 1131 1142 1153 1165 1176 1188 1199 1211 1223 1234 1244 1252 1259 1263 1264 1259 1251 1240 1227 1213 1197 1178 1154 1125 1093 1062 1033 1007 982 960 939 922 906 891 878 866 853 840 826 812 798 786 775 764 752 737 721 702 682 658 631 631 643 657 672 687 702 717 732 746 761 775 791 807 822 836 847 854 857 855 852 851 856 868 885 907 931 956 979 1000 1018 1035 1050 1064 1076 1086 1094 1099 1102 -9999 -9999 -9999 -9999 -9999 -9999 -9999 -9999 -9999 -9999 -9999 -9999 -9999 -9999 -9999 -9999 -9999 -9999 -9999 -9999 -9999 -9999 -9999 -9999 -9999 -9999 -9999 -9999 -9999 -9999 -9999 -9999
1327 1327 1330 1335 1339 1344 1350 1350 1350 1351 1352 1353 1355 1363 1374 1384 1396 1410 1425 1441 1455 1465 1469 1463 1445 1412 1363 1363 1384 1397 1401 1400 1395 1389 1383 1378 1376 1376 1377 1379 1381 1381 1380 1377 1372 1366 1361 1356 1352 1348 1345 1342 1339 1337 1334 1330 1326 1322 1317 1310 1304 1296 1289 1281 1273 1264 1254 1245 1235 1226 1217 1209 1202 1194 1187 1179 1172 1165 1158 1151 1144 1137 1130 1124 1119 1114 1110 1107 1104 1103 1101 1100 1098 1096 1095 1095 1097 1101 1104 1106 1107 1107 1108 1111 1116 1124 1135 1148 1160 1171 1183 1195 1207 1220 1232 1243 1252 1260 1265 1266 1263 1255 1245 1233 1219 1204 1185 1161 1131 1097 1064 1032 1004 978 955 935 918 902 887 874 861 849 835 821 806 791 778 766 755 742 728 714 697 679 660 641 629 629 646 662 677 691 706 720 733 747 760 774 789 804 817 827 834 837 838 837 840 847 861 879 901 924 948 970 990 1007 1024 1039 1053 1066 1078 1088 1095 1100 -9999 -9999 -9999 -9999 -9999 -9999 -9999 -9999 -9999 -9999 -9999 -9999 -9999 -9999 -9999 -9999 -9999 -9999 -9999 -9999 -9999 -9999 -9999 -9999 -9999 -9999 -9999 -9999 -9999 -9999 -9999 -9999
1329 1315 1317 1321 1324 1326 1323 1331 1333 1334 1335 1337 1340 1350 1359 1368 1378 1390 1403 1417 1432 1445 1450 1443 1424 1391 1349 1357 1372 1382 1386 1385 1380 1373 1367 1362 1360 1361 1364 1368 1372 1375 1376 1375 1372 1368 1364 1359 1355 1352 1349 1346 1343 1340 1337 1334 1330 1325 1320 1313 1306 1299 1292 1284 1275 1266 1257 1247 1237 1228 1219 1211 1203 1196 1188 1180 1173 1166 1159 1152 1145 1138 1132 1127 1122 1117 1112 1108 1104 1102 1099 1098 1096 1094 1092 1092 1094 1097 1100 1101 1101 1101 1101 1103 1108 1116 1127 1139 1151 1163 1174 1187 1200 1214 1228 1239 1249 1258 1264 1266 1264 1258 1248 1237 1223 1207 1189 1165 1135 1101 1066 1033 1003 977 954 934 917 901 886 873 860 847 833 817 802 787 773 760 747 734 721 707 692 676 660 644 630 618 637 652 667 682 695 709 722 735 748 761 774 788 800 809 816 820 822 824 830 840 855 874 895 917 939 959 978 995 1011 1025 1040 1054 1068 1081 1088 -9999 -9999 -9999 -9999 -9999 -9999 -9999 -9999 -9999 -9999 -9999 -9999 -9999 -9999 -9999 -9999 -9999 -9999 -9999 -9999 -9999 -9999 -9999 -9999 -9999 -9999 -9999 -9999 -9999 -9999 -9999 -9999 -9999
1325 1306 1301 1306 1310 1312 1313 1316 1317 1317 1316 1318 1331 1338 1346 1355 1363 1372 1383 1396 1411 1423 1428 1421 1401 1370 1335 1346 1358 1368 1372 1371 1366 1359 1353 1348 1346 1348 1352 1357 1363 1367 1370 1371 1371 1369 1366 1362 1359 1355 1352 1350 1347 1344 1340 1337 1333 1328 1323 1316 1309 1302 1295 1287 1278 1268 1258 1248 1239 1229 1220 1212 1204 1197 1189 1181 1174 1167 1160 1153 1146 1140 1134 1129 1124 1120 1115 1110 1106 1102 1099 1096 1094 1091 1090 1089 1090 1093 1095 1095 1095 1094 1093 1094 1098 1105 1116 1127 1139 1151 1162 1174 1189 1203 1217 1230 1241 1251 1259 1264 1263 1258 1249 1237 1223 1207 1188 1165 1136 1103 1068 1035 1004 977 955 935 918 902 887 873 860 846 831 815 799 783 768 755 741 727 714 700 687 672 658 644 630 614 629 644 659 673 686 699 712 724 737 749 761 773 784 792 799 804 808 813 821 834 851 869 889 909 928 947 965 981 996 1011 1027 1043 1059 1074 1083 -9999 -9999 -9999 -9999 -9999 -9999 -9999 -9999 -9999 -9999 -9999 -9999 -9999 -9999 -9999 -9999 -9999 -9999 -9999 -9999 -9999 -9999 -9999 -9999 -9999 -9999 -9999 -9999 -9999 -9999 -9999 -9999 -9999
1321 1304 1290 1293 1296 1300 1303 1302 1301 1299 1294 1302 1315 1325 1334 1342 1349 1357 1365 1376 1388 1398 1402 1394 1374 1347 1318 1331 1344 1354 1359 1358 1353 1346 1339 1334 1333 1335 1339 1346 1352 1357 1362 1366 1368 1369 1367 1365 1362 1359 1356 1353 1350 1347 1343 1340 1336 1331 1325 1319 1312 1305 1298 1289 1280 1270 1260 1249 1240 1230 1221 1213 1206 1198 1190 1182 1175 1168 1161 1154 1147 1141 1135 1130 1126 1122 1117 1113 1108 1104 1100 1096 1092 1090 1087 1086 1087 1088 1089 1090 1088 1086 1084 1084 1087 1093 1102 1113 1124 1135 1145 1157 1170 1185 1199 1212 1225 1238 1249 1256 1259 1255 1246 1234 1218 1201 1182 1160 1134 1103 1070 1037 1006 980 958 939 922 905 890 875 860 846 830 813 797 780 765 750 736 722 708 695 683 669 656 643 629 613 622 635 649 664 677 690 703 715 727 738 749 759 768 776 783 789 795 803 814 829 845 863 881 899 916 933 949 965 981 997 1014 1032 1050 1067 1079 1085 -9999 -9999 -9999 -9999 -9999 -9999 -9999 -9999 -9999 -9999 -9999 -9999 -9999 -9999 -9999 -9999 -9999 -9999 -9999 -9999 -9999 -9999 -9999 -9999 -9999 -9999 -9999 -9999 -9999 -9999 -9999 -9999
1316 1298 1280 1280 1282 1287 1293 1286 1283 1283 1283 1293 1304 1314 1322 1330 1337 1342 1348 1356 1365 1372 1373 1364 1346 1322 1294 1313 1329 1340 1345 1345 1340 1333 1326 1321 1320 1322 1327 1334 1341 1347 1354 1360 1365 1368 1369 1367 1364 1361 1358 1356 1353 1350 1346 1342 1338 1333 1328 1322 1315 1308 1300 1291 1282 1271 1261 1250 1240 1231 1222 1214 1207 1199 1191 1183 1176 1169 1161 1154 1148 1141 1136 1131 1127 1123 1119 1114 1110 1105 1101 1096 1092 1089 1086 1084 1083 1084 1084 1083 1081 1078 1075 1073 1074 1079 1087 1096 1105 1115 1124 1135 1146 1159 1172 1185 1199 1215 1231 1243 1248 1247 1238 1225 1209 1190 1171 1151 1128 1101 1070 1039 1010 985 963 944 927 910 893 878 862 847 831 814 796 779 763 747 733 718 705 693 681 669 657 644 629 610 610 623 639 654 668 682 694 706 717 727 736 745 753 761 768 776 784 794 807 823 839 855 871 886 901 917 932 948 965 983 1002 1022 1042 1061 1076 1085 -9999 -9999 -9999 -9999 -9999 -9999 -9999 -9999 -9999 -9999 -9999 -9999 -9999 -9999 -9999 -9999 -9999 -9999 -9999 -9999 -9999 -9999 -9999 -9999 -9999 -9999 -9999 -9999 -9999 -9999 -9999 -9999
1310 1293 1275 1258 1266 1271 1273 1267 1262 1265 1271 1282 1293 1303 1312 1319 1325 1329 1333 1337 1343 1347 1345 1335 1319 1298 1271 1296 1314 1325 1331 1331 1327 1320 1314 1309 1307 1310 1315 1322 1330 1338 1346 1355 1362 1368 1370 1369 1367 1364 1361 1358 1355 1352 1349 1345 1341 1336 1330 1324 1317 1309 1302 1293 1283 1273 1262 1251 1241 1232 1224 1216 1208 1200 1193 1185 1177 1170 1162 1155 1148 1142 1136 1131 1127 1123 1119 1115 1111 1106 1102 1097 1093 1088 1085 1082 1081 1080 1079 1077 1074 1069 1065 1061 1061 1064 1070 1077 1085 1094 1101 1109 1118 1128 1140 1152 1167 1186 1205 1221 1231 1231 1224 1210 1193 1174 1156 1138 1118 1095 1069 1042 1015 990 970 951 933 916 899 883 867 852 836 818 800 782 764 747 731 718 705 694 683 672 660 647 634 619 606 606 628 645 659 672 685 696 706 716 724 732 739 747 756 765 775 786 800 815 831 845 859 873 887 900 916 933 951 971 992 1013 1034 1054 1071 1083 1089 -9999 -9999 -9999 -9999 -9999 -9999 -9999 -9999 -9999 -9999 -9999 -9999 -9999 -9999 -9999 -9999 -9999 -9999 -9999 -9999 -9999 -9999 -9999 -9999 -9999 -9999 -9999 -9999 -9999 -9999 -9999
1304 1287 1269 1251 1254 1254 1249 1235 1233 1233 1255 1270 1283 1293 1302 1308 1313 1316 1318 1320 1323 1323 1319 1309 1295 1280 1272 1286 1300 1311 1317 1317 1313 1307 1301 1296 1295 1297 1304 1312 1321 1331 1341 1351 1360 1367 1370 1371 1369 1366 1364 1361 1358 1355 1351 1347 1343 1338 1332 1325 1318 1311 1303 1294 1285 1274 1263 1253 1242 1233 1225 1217 1209 1201 1194 1186 1178 1170 1163 1155 1148 1142 1136 1132 1127 1123 1120 1116 1111 1107 1103 1098 1094 1089 1084 1081 1078 1076 1073 1070 1065 1060 1053 1048 1046 1047 1052 1059 1066 1072 1079 1085 1091 1099 1108 1119 1134 1153 1174 1193 1205 1208 1201 1188 1171 1153 1137 1122 1106 1087 1066 1042 1018 996 976 957 939 922 906 890 875 860 845 828 808 788 768 749 733 720 708 698 688 677 665 652 639 626 613 604 620 635 650 663 675 686 695 704 712 719 728 736 746 756 767 779 793 807 821 834 847 860 873 887 902 920 940 962 983 1004 1026 1047 1066 1081 1091 1095 -9999 -9999 -9999 -9999 -9999 -9999 -9999 -9999 -9999 -9999 -9999 -9999 -9999 -9999 -9999 -9999 -9999 -9999 -9999 -9999 -9999 -9999 -9999 -9999 -9999 -9999 -9999 -9999 -9999 -9999
1298 1280 1261 1245 1242 1239 1231 1216 1212 1227 1246 1261 1274 1284 1292 1298 1301 1303 1303 1304 1304 1302 1296 1285 1270 1252 1252 1272 1287 1297 1302 1302 1299 1294 1288 1283 1283 1286 1293 1303 1314 1325 1337 1348 1358 1366 1371 1372 1371 1369 1366 1364 1361 1357 1354 1350 1345 1340 1334 1327 1319 1312 1304 1296 1286 1276 1265 1254 1244 1235 1226 1218 1210 1202 1194 1186 1178 1170 1162 1155 1148 1142 1137 1132 1128 1124 1120 1116 1112 1108 1104 1099 1094 1089 1084 1080 1076 1072 1068 1063 1056 1049 1041 1033 1028 1027 1034 1041 1047 1053 1058 1063 1068 1074 1081 1091 1105 1122 1142 1161 1174 1178 1172 1160 1144 1128 1115 1103 1090 1076 1059 1040 1019 999 980 962 945 929 913 898 884 870 855 839 819 797 775 754 737 724 713 703 694 683 671 659 645 631 617 602 612 626 640 653 664 675 684 692 700 708 718 728 738 749 760 772 785 798 811 824 837 850 863 877 892 911 932 954 976 997 1019 1040 1060 1076 1089 1096 1100 1101 -9999 -9999 -9999 -9999 -9999 -9999 -9999 -9999 -9999 -9999 -9999 -9999 -9999 -9999 -9999 -9999 -9999 -9999 -9999 -9999 -9999 -9999 -9999 -9999 -9999 -9999 -9999 -9999
1293 1273 1251 1226 1228 1224 1215 1201 1199 1218 1237 1254 1267 1276 1283 1287 1289 1289 1288 1287 1286 1283 1274 1261 1244 1232 1245 1261 1274 1283 1288 1288 1285 1280 1274 1271 1271 1275 1284 1295 1308 1321 1334 1346 1357 1365 1371 1373 1373 1371 1369 1366 1363 1360 1356 1352 1347 1342 1335 1328 1321 1313 1305 1297 1287 1277 1267 1256 1246 1236 1227 1219 1210 1202 1194 1186 1178 1170 1162 1155 1148 1142 1137 1133 1129 1125 1121 1117 1113 1109 1105 1100 1095 1089 1084 1079 1074 1068 1062 1055 1046 1037 1026 1016 1006 1000 1015 1024 1030 1035 1040 1044 1048 1053 1059 1068 1080 1095 1113 1130 1142 1147 1142 1131 1117 1103 1092 1082 1073 1063 1050 1035 1017 999 981 965 949 933 919 904 891 877 863 847 828 805 782 760 743 729 719 710 700 690 678 665 651 636 619 597 597 616 631 644 655 664 673 681 690 699 709 720 731 742 753 765 777 789 802 815 829 843 857 871 887 906 927 949 970 991 1012 1033 1053 1071 1085 1094 1099 1100 1099 1097 1096 1096 1097 1099 1101 1103 -9999 -9999 -9999 -9999 -9999 -9999 -9999 -9999 -9999 -9999 -9999 -9999 -9999 -9999 -9999 -9999 -9999 -9999 -9999 -9999
1288 1266 1243 1216 1216 1210 1200 1189 1186 1208 1229 1246 1259 1269 1274 1277 1277 1275 1273 1271 1269 1264 1254 1237 1212 1212 1233 1250 1263 1271 1274 1274 1271 1266 1261 1259 1260 1266 1276 1289 1303 1317 1331 1343 1355 1364 1370 1374 1374 1373 1371 1369 1366 1363 1359 1354 1349 1344 1337 1330 1322 1314 1306 1297 1288 1278 1268 1257 1247 1238 1228 1219 1211 1202 1194 1186 1177 1169 1162 1155 1149 1143 1138 1134 1130 1126 1122 1118 1114 1110 1105 1100 1094 1088 1083 1077 1071 1064 1056 1047 1036 1024 1011 997 980 1000 1003 1009 1015 1019 1023 1027 1031 1035 1041 1050 1060 1073 1088 1102 1113 1117 1114 1105 1093 1081 1071 1063 1056 1048 1039 1028 1013 998 981 966 951 936 921 907 893 880 866 850 832 810 787 766 748 735 725 716 707 697 685 672 657 642 626 608 596 611 624 636 646 655 663 672 680 690 701 713 724 735 746 758 769 781 794 809 824 840 855 870 887 905 925 945 966 986 1007 1027 1047 1065 1080 1091 1097 1098 1098 1097 1096 1096 1097 1099 1102 1105 1107 -9999 -9999 -9999 -9999 -9999 -9999 -9999 -9999 -9999 -9999 -9999 -9999 -9999 -9999 -9999 -9999 -9999 -9999 -9999
1284 1262 1237 1207 1207 1192 1181 1166 1166 1197 1220 1238 1251 1260 1264 1265 1264 1261 1258 1255 1252 1246 1235 1217 1191 1206 1224 1240 1251 1259 1263 1262 1258 1253 1248 1247 1250 1257 1269 1283 1298 1313 1327 1340 1351 1362 1369 1374 1376 1375 1374 1371 1369 1365 1361 1356 1351 1346 1339 1332 1324 1316 1307 1298 1289 1279 1269 1258 1248 1239 1229 1220 1211 1202 1194 1186 1177 1170 1163 1157 1151 1146 1141 1137 1132 1127 1123 1119 1114 1109 1104 1098 1092 1086 1079 1072 1065 1058 1048 1038 1025 1011 998 984 970 979 987 994 1000 1004 1007 1011 1014 1019 1025 1032 1042 1053 1066 1077 1087 1092 1091 1084 1073 1062 1053 1046 1040 1034 1028 1019 1008 995 980 966 951 936 921 907 893 879 864 848 831 811 789 770 754 741 732 723 714 704 692 679 664 648 631 613 595 607 618 629 638 647 655 663 672 682 693 705 716 727 738 750 762 775 789 805 822 839 855 871 888 906 924 943 962 982 1002 1022 1041 1060 1075 1086 1093 1095 1096 1095 1095 1095 1096 1099 1102 1106 1109 1110 -9999 -9999 -9999 -9999 -9999 -9999 -9999 -9999 -9999 -9999 -9999 -9999 -9999 -9999 -9999 -9999 -9999 -9999
1282 1259 1234 1207 1187 1169 1160 1145 1165 1190 1212 1228 1241 1249 1253 1254 1251 1247 1243 1240 1236 1230 1219 1202 1179 1197 1215 1230 1241 1249 1252 1251 1246 1241 1236 1236 1241 1250 1262 1277 1293 1309 1322 1335 1347 1358 1368 1374 1377 1377 1376 1374 1371 1367 1363 1358 1353 1348 1341 1334 1326 1317 1308 1299 1289 1279 1269 1259 1249 1239 1230 1220 1211 1203 1195 1187 1179 1172 1165 1160 1155 1150 1145 1140 1135 1130 1125 1120 1115 1109 1103 1096 1089 1081 1073 1065 1057 1049 1039 1027 1013 1000 986 973 960 960 971 979 985 989 992 995 999 1003 1008 1016 1024 1034 1044 1055 1063 1069 1070 1066 1057 1047 1038 1030 1025 1020 1016 1010 1001 991 978 964 950 935 920 905 891 876 860 844 827 809 790 773 759 748 739 730 721 711 699 686 671 655 636 615 592 603 613 623 631 639 647 655 664 674 684 696 707 718 730 742 755 769 784 801 819 838 855 872 890 907 924 942 959 978 998 1017 1036 1053 1068 1079 1086 1089 1090 1091 1091 1092 1094 1098 1102 1106 1109 1111 -9999 -9999 -9999 -9999 -9999 -9999 -9999 -9999 -9999 -9999 -9999 -9999 -9999 -9999 -9999 -9999 -9999 -9999
1281 1257 1231 1202 1165 1133 1139 1136 1159 1182 1201 1216 1228 1236 1240 1241 1239 1234 1230 1225 1221 1215 1204 1188 1168 1187 1205 1221 1232 1240 1242 1241 1236 1230 1226 1226 1232 1242 1256 1272 1289 1304 1317 1330 1342 1354 1364 1372 1377 1379 1378 1376 1373 1369 1365 1360 1355 1350 1343 1336 1327 1318 1309 1299 1289 1279 1269 1259 1249 1240 1230 1221 1212 1204 1197 1189 1182 1175 1169 1164 1159 1154 1149 1144 1138 1132 1127 1121 1115 1109 1102 1095 1087 1077 1067 1057 1047 1037 1026 1014 1001 988 975 964 955 950 956 964 970 974 977 980 983 987 992 998 1006 1014 1024 1033 1041 1048 1051 1049 1042 1033 1024 1016 1011 1007 1004 1000 994 985 975 962 948 933 918 903 888 873 857 841 824 808 792 778 765 755 746 737 728 718 707 693 678 661 641 617 591 599 607 616 625 632 640 647 656 665 675 686 698 710 722 735 748 762 778 796 815 834 853 871 890 907 924 941 957 975 994 1012 1030 1045 1059 1068 1075 1078 1081 1083 1085 1087 1090 1095 1101 1106 1110 1112 -9999 -9999 -9999 -9999 -9999 -9999 -9999 -9999 -9999 -9999 -9999 -9999 -9999 -9999 -9999 -9999 -9999 -9999
1281 1257 1232 1203 1170 1133 1124 1127 1148 1169 1188 1202 1213 1221 1225 1227 1226 1222 1217 1212 1207 1200 1189 1173 1156 1175 1195 1212 1224 1232 1234 1231 1226 1219 1215 1216 1223 1235 1250 1267 1283 1298 1311 1323 1335 1348 1360 1369 1376 1379 1379 1378 1375 1371 1367 1362 1357 1351 1344 1337 1328 1319 1309 1299 1289 1279 1269 1260 1250 1240 1231 1222 1214 1206 1199 1192 1185 1179 1173 1168 1163 1158 1153 1147 1141 1135 1129 1123 1117 1110 1103 1096 1087 1076 1063 1050 1037 1025 1012 1000 988 976 965 955 946 940 941 948 954 959 962 965 968 972 977 982 988 996 1004 1012 1020 1027 1032 1032 1027 1019 1011 1003 998 994 992 989 985 979 970 959 945 931 916 901 886 871 855 840 824 810 796 783 772 762 753 744 735 725 714 701 686 668 646 619 588 593 601 609 617 625 632 640 648 657 667 677 689 701 714 728 741 755 771 789 807 827 847 867 887 906 923 939 955 972 989 1006 1021 1035 1045 1053 1059 1062 1066 1070 1074 1078 1084 1091 1098 1105 1109 1111 -9999 -9999 -9999 -9999 -9999 -9999 -9999 -9999 -9999 -9999 -9999 -9999 -9999 -9999 -9999 -9999 -9999 -9999
1281 1258 1234 1207 1178 1148 1124 1115 1134 1154 1172 1187 1197 1205 1211 1214 1214 1211 1205 1198 1191 1183 1170 1154 1137 1162 1185 1203 1216 1224 1225 1222 1215 1209 1205 1207 1214 1227 1244 1261 1277 1291 1304 1316 1328 1341 1354 1366 1374 1379 1381 1379 1376 1373 1368 1364 1358 1352 1345 1337 1328 1319 1309 1299 1289 1279 1270 1260 1250 1240 1231 1223 1215 1208 1202 1195 1189 1183 1177 1172 1166 1161 1155 1150 1144 1137 1130 1124 1118 1112 1106 1098 1089 1077 1062 1045 1028 1013 999 987 975 964 954 945 937 930 920 932 939 944 948 951 954 958 962 967 972 979 986 993 1001 1008 1013 1014 1011 1005 997 990 985 982 979 978 975 971 964 954 942 929 914 899 885 871 856 842 828 814 802 790 779 769 760 751 741 731 720 707 693 674 651 623 586 585 593 601 610 617 625 632 640 649 659 670 681 694 707 720 733 747 763 779 798 817 838 860 882 903 921 938 953 969 984 999 1012 1022 1029 1035 1039 1043 1048 1054 1060 1068 1076 1085 1095 1103 1108 1111 -9999 -9999 -9999 -9999 -9999 -9999 -9999 -9999 -9999 -9999 -9999 -9999 -9999 -9999 -9999 -9999 -9999 -9999
1281 1259 1236 1211 1184 1155 1128 1102 1117 1136 1154 1170 1182 1190 1197 1201 1203 1200 1194 1186 1175 1163 1148 1130 1117 1148 1174 1195 1209 1216 1216 1211 1204 1197 1194 1196 1205 1218 1235 1252 1268 1283 1295 1308 1321 1335 1349 1362 1373 1379 1381 1380 1378 1374 1369 1364 1359 1352 1345 1337 1328 1319 1309 1299 1289 1279 1270 1260 1250 1241 1232 1224 1217 1210 1204 1198 1192 1186 1180 1175 1169 1163 1158 1152 1145 1139 1132 1126 1120 1115 1109 1102 1093 1080 1062 1041 1021 1003 988 975 964 954 945 937 930 923 920 922 926 930 933 937 940 944 948 953 958 964 970 976 983 989 994 995 993 989 983 976 972 969 967 966 964 961 956 949 938 926 912 898 885 871 858 846 833 821 809 797 786 775 766 756 746 736 725 713 698 680 659 634 607 584 584 592 601 609 617 624 632 642 652 662 674 686 698 711 724 738 753 770 787 807 829 853 877 900 920 936 952 966 979 991 1000 1007 1012 1015 1019 1024 1031 1038 1047 1057 1069 1080 1092 1100 1107 1110 -9999 -9999 -9999 -9999 -9999 -9999 -9999 -9999 -9999 -9999 -9999 -9999 -9999 -9999 -9999 -9999 -9999 -9999
1279 1259 1237 1212 1185 1157 1128 1093 1093 1112 1133 1152 1166 1176 1185 1191 1194 1192 1185 1174 1160 1141 1124 1097 1097 1135 1164 1186 1200 1207 1206 1199 1191 1185 1182 1185 1194 1207 1224 1241 1257 1272 1286 1300 1314 1330 1345 1359 1371 1378 1381 1381 1378 1374 1370 1364 1358 1352 1344 1336 1327 1318 1309 1299 1289 1279 1270 1260 1250 1242 1233 1226 1219 1212 1206 1200 1194 1189 1183 1177 1171 1165 1159 1153 1147 1140 1133 1128 1123 1118 1113 1106 1097 1082 1062 1039 1015 995 978 965 954 945 936 929 922 915 910 910 911 914 919 923 927 931 935 940 945 950 956 961 967 972 975 976 975 971 966 961 957 955 954 953 952 951 947 941 933 922 910 897 885 873 862 850 839 828 816 805 793 782 771 761 751 740 729 717 703 686 666 644 622 601 583 582 593 601 608 615 624 633 644 655 666 677 689 701 714 728 744 760 777 797 819 845 872 897 917 935 949 962 974 982 988 991 993 995 998 1006 1015 1025 1037 1049 1063 1077 1089 1098 1105 1108 -9999 -9999 -9999 -9999 -9999 -9999 -9999 -9999 -9999 -9999 -9999 -9999 -9999 -9999 -9999 -9999 -9999 -9999
1275 1255 1234 1209 1182 1155 1128 1102 1085 1085 1110 1132 1149 1163 1174 1182 1186 1185 1177 1164 1148 1128 1106 1077 1097 1127 1155 1177 1191 1197 1194 1186 1177 1171 1169 1173 1182 1196 1212 1229 1245 1261 1277 1293 1310 1326 1342 1357 1369 1377 1380 1380 1377 1374 1369 1363 1357 1350 1342 1334 1325 1317 1308 1298 1289 1279 1269 1260 1251 1242 1234 1227 1219 1213 1207 1201 1196 1190 1185 1179 1173 1167 1160 1154 1148 1141 1135 1130 1126 1122 1117 1111 1100 1085 1063 1036 1010 988 971 957 947 937 929 921 914 907 902 900 892 897 903 909 913 918 923 928 933 938 943 947 951 954 956 956 955 952 949 945 942 941 940 940 939 938 936 932 926 918 908 897 887 876 866 856 846 835 824 813 801 789 777 766 756 745 733 721 707 691 673 653 634 614 596 582 587 593 598 605 614 624 636 647 658 669 680 692 706 720 736 752 769 789 812 839 867 893 915 932 946 958 967 972 975 975 974 973 975 990 1004 1016 1030 1045 1059 1074 1086 1096 1103 1106 -9999 -9999 -9999 -9999 -9999 -9999 -9999 -9999 -9999 -9999 -9999 -9999 -9999 -9999 -9999 -9999 -9999 -9999
1268 1249 1228 1204 1175 1147 1123 1101 1081 1059 1087 1111 1132 1149 1163 1173 1179 1178 1170 1156 1137 1115 1095 1071 1088 1116 1143 1165 1179 1185 1181 1172 1163 1157 1156 1161 1170 1184 1200 1217 1234 1251 1270 1288 1306 1324 1340 1355 1367 1375 1378 1378 1376 1372 1367 1361 1354 1347 1340 1332 1323 1315 1306 1298 1288 1279 1269 1259 1250 1242 1234 1226 1219 1213 1207 1201 1196 1190 1185 1179 1173 1167 1161 1155 1149 1143 1138 1133 1129 1126 1121 1114 1103 1086 1062 1034 1005 982 965 951 941 931 923 915 907 899 890 880 861 876 886 893 899 905 910 915 921 926 930 933 935 936 937 937 936 934 932 929 927 926 926 926 926 925 924 922 919 913 906 897 888 880 871 862 852 843 832 821 809 796 784 772 761 750 738 725 711 696 679 662 643 625 605 581 581 585 587 591 602 614 627 639 650 661 673 685 699 714 730 746 764 783 807 834 863 890 911 929 942 952 959 961 960 957 953 950 955 980 996 1011 1026 1042 1057 1072 1084 1094 1100 1105 -9999 -9999 -9999 -9999 -9999 -9999 -9999 -9999 -9999 -9999 -9999 -9999 -9999 -9999 -9999 -9999 -9999 -9999
1256 1240 1221 1197 1165 1131 1113 1095 1078 1049 1067 1089 1112 1133 1150 1163 1169 1169 1162 1147 1126 1101 1085 1066 1066 1102 1130 1152 1166 1170 1167 1158 1149 1144 1144 1149 1159 1173 1189 1206 1224 1244 1264 1285 1305 1323 1340 1354 1366 1373 1376 1376 1373 1369 1364 1358 1352 1345 1337 1329 1321 1313 1305 1296 1287 1277 1268 1258 1249 1240 1232 1225 1217 1211 1205 1199 1194 1189 1184 1179 1173 1168 1162 1156 1151 1146 1141 1137 1133 1129 1124 1116 1105 1087 1062 1032 1003 980 962 948 938 928 919 911 901 891 880 867 849 858 869 878 885 891 897 903 908 913 916 918 919 919 919 919 918 917 915 914 912 912 911 912 912 912 912 911 910 907 902 897 890 884 876 869 860 851 841 829 817 804 791 779 766 755 742 730 716 701 686 669 653 635 617 598 580 579 575 571 587 603 618 631 643 655 667 681 695 711 727 743 761 780 804 831 859 885 907 923 936 944 948 948 944 939 930 950 961 978 995 1010 1025 1041 1056 1071 1083 1092 1097 -9999 -9999 -9999 -9999 -9999 -9999 -9999 -9999 -9999 -9999 -9999 -9999 -9999 -9999 -9999 -9999 -9999 -9999 -9999
1233 1231 1216 1195 1169 1142 1120 1098 1074 1039 1039 1062 1090 1115 1134 1148 1156 1157 1151 1136 1115 1087 1078 1067 1061 1091 1118 1139 1151 1154 1150 1142 1135 1131 1132 1139 1150 1163 1179 1197 1217 1238 1260 1283 1304 1324 1341 1355 1365 1372 1375 1374 1372 1367 1362 1356 1349 1342 1335 1327 1319 1311 1303 1294 1285 1276 1265 1255 1246 1237 1229 1222 1214 1207 1201 1196 1191 1186 1182 1177 1173 1168 1163 1158 1153 1148 1144 1140 1136 1131 1126 1118 1106 1088 1062 1032 1003 980 962 949 937 928 918 909 897 883 871 857 837 837 851 861 870 877 884 890 896 900 903 903 903 902 902 901 901 900 899 898 897 897 897 897 898 898 899 900 900 900 898 895 892 887 882 876 869 860 850 838 825 811 798 784 772 759 747 734 720 706 692 677 661 645 628 612 597 588 579 571 571 593 610 625 638 651 665 679 694 709 725 742 759 779 802 828 855 880 901 916 927 933 935 932 926 925 925 946 963 980 996 1011 1026 1042 1057 1070 1082 1090 1095 -9999 -9999 -9999 -9999 -9999 -9999 -9999 -9999 -9999 -9999 -9999 -9999 -9999 -9999 -9999 -9999 -9999 -9999 -9999
1251 1234 1216 1195 1170 1147 1124 1102 1078 1050 1029 1029 1065 1094 1115 1129 1138 1141 1137 1125 1104 1072 1072 1062 1051 1080 1106 1125 1134 1137 1133 1126 1121 1119 1122 1130 1141 1155 1172 1190 1210 1233 1257 1281 1304 1325 1343 1356 1367 1373 1375 1374 1371 1366 1360 1354 1348 1340 1333 1325 1317 1309 1300 1292 1283 1273 1263 1252 1243 1234 1225 1218 1210 1203 1197 1191 1186 1183 1179 1175 1171 1167 1163 1158 1154 1150 1146 1142 1138 1133 1127 1119 1107 1089 1064 1035 1007 984 966 952 941 931 921 910 895 872 863 854 839 826 834 844 854 863 871 878 884 887 889 889 888 887 886 885 885 885 884 883 883 883 883 884 884 885 886 888 890 892 893 893 892 890 888 884 878 871 860 848 834 819 804 789 776 763 751 738 724 710 697 682 668 652 637 621 607 594 582 571 568 588 606 622 637 651 665 679 694 710 725 742 759 778 800 825 851 874 893 907 917 921 921 916 900 910 929 948 966 984 1000 1015 1029 1044 1058 1071 1081 1087 -9999 -9999 -9999 -9999 -9999 -9999 -9999 -9999 -9999 -9999 -9999 -9999 -9999 -9999 -9999 -9999 -9999 -9999 -9999 -9999
1258 1238 1217 1194 1167 1145 1123 1102 1085 1055 1026 1007 1042 1071 1092 1107 1118 1123 1121 1113 1097 1076 1057 1057 1041 1069 1094 1110 1118 1118 1115 1110 1107 1107 1112 1122 1134 1149 1165 1183 1204 1227 1252 1278 1303 1326 1345 1359 1368 1374 1376 1374 1371 1366 1360 1353 1346 1338 1330 1322 1314 1306 1298 1289 1279 1269 1259 1249 1239 1230 1221 1213 1206 1198 1192 1186 1181 1178 1175 1172 1169 1166 1162 1158 1155 1151 1147 1143 1139 1134 1128 1120 1108 1091 1068 1041 1015 993 974 959 947 936 926 916 902 883 863 855 838 815 815 825 838 849 858 865 871 875 876 875 874 872 871 870 870 870 870 869 869 869 870 870 871 871 872 875 878 881 885 887 889 891 891 889 886 880 870 857 841 825 809 794 780 767 754 741 728 715 701 687 672 657 641 625 610 595 579 564 564 587 606 622 637 652 666 681 696 711 726 742 759 778 799 822 846 867 884 897 904 907 907 910 910 918 933 952 971 990 1006 1021 1034 1048 1061 1072 1081 1086 -9999 -9999 -9999 -9999 -9999 -9999 -9999 -9999 -9999 -9999 -9999 -9999 -9999 -9999 -9999 -9999 -9999 -9999 -9999 -9999
1262 1241 1218 1192 1157 1138 1120 1102 1085 1059 1026 1001 1022 1046 1067 1084 1096 1103 1104 1099 1089 1074 1057 1042 1029 1057 1080 1095 1101 1101 1098 1095 1094 1097 1104 1115 1128 1143 1159 1177 1197 1220 1245 1273 1300 1325 1345 1360 1369 1375 1376 1374 1370 1365 1358 1351 1344 1336 1328 1319 1311 1303 1295 1286 1276 1266 1255 1245 1235 1226 1217 1209 1201 1194 1187 1181 1176 1173 1170 1168 1166 1163 1160 1158 1154 1151 1148 1144 1139 1134 1127 1119 1108 1092 1072 1048 1025 1003 984 968 954 943 933 922 910 895 878 861 838 821 803 803 822 835 845 852 858 861 862 862 860 858 857 856 856 857 857 856 856 856 856 857 858 858 859 861 865 870 875 879 883 887 890 891 889 885 876 863 847 830 813 798 783 770 757 745 732 719 706 691 675 659 642 626 609 590 572 561 572 590 608 624 639 654 668 683 698 713 727 743 759 777 797 819 840 859 874 885 890 890 886 879 900 917 936 957 978 998 1015 1028 1041 1053 1064 1074 1082 1085 -9999 -9999 -9999 -9999 -9999 -9999 -9999 -9999 -9999 -9999 -9999 -9999 -9999 -9999 -9999 -9999 -9999 -9999 -9999 -9999
1264 1244 1222 1199 1173 1151 1132 1113 1094 1069 1037 995 995 1019 1041 1060 1074 1083 1086 1085 1078 1067 1053 1035 1017 1044 1067 1080 1085 1085 1082 1081 1082 1087 1096 1108 1122 1137 1152 1170 1189 1212 1237 1266 1295 1322 1344 1359 1369 1373 1375 1373 1369 1363 1356 1349 1341 1333 1325 1317 1308 1300 1292 1282 1273 1263 1252 1242 1232 1223 1214 1206 1198 1190 1183 1176 1171 1168 1166 1164 1162 1160 1158 1156 1153 1151 1148 1144 1139 1133 1125 1116 1105 1090 1073 1053 1032 1012 993 976 961 949 939 928 917 904 888 871 850 830 811 795 810 822 832 839 844 848 849 848 847 845 844 843 843 844 844 843 843 843 843 844 845 845 846 848 852 857 862 868 874 879 883 886 887 885 877 865 850 833 817 801 787 773 760 748 737 724 710 694 677 660 642 624 604 583 556 556 575 593 610 626 641 656 670 685 699 714 728 743 759 776 795 815 834 851 863 871 874 872 866 866 894 917 940 963 987 1007 1024 1037 1048 1058 1068 1076 1082 1085 -9999 -9999 -9999 -9999 -9999 -9999 -9999 -9999 -9999 -9999 -9999 -9999 -9999 -9999 -9999 -9999 -9999 -9999 -9999 -9999
1265 1247 1227 1205 1182 1161 1141 1122 1102 1080 1053 1021 990 990 1012 1035 1053 1064 1069 1070 1066 1058 1045 1027 1005 1031 1053 1066 1071 1070 1069 1069 1071 1078 1088 1101 1116 1131 1146 1162 1181 1202 1228 1257 1287 1316 1339 1355 1365 1369 1370 1368 1365 1359 1352 1345 1337 1329 1321 1313 1305 1297 1289 1279 1270 1260 1250 1240 1230 1221 1212 1203 1195 1187 1179 1173 1167 1163 1161 1159 1158 1156 1155 1153 1152 1150 1147 1143 1138 1131 1122 1111 1099 1085 1070 1053 1035 1016 998 980 965 953 941 931 920 908 895 878 858 836 813 787 799 809 818 824 830 833 835 835 833 832 831 830 830 831 831 830 830 830 830 831 832 832 833 835 839 844 850 855 861 868 873 878 880 879 874 863 850 834 819 804 790 776 764 753 742 729 715 697 679 660 640 621 600 577 552 563 580 597 613 629 643 657 671 685 700 714 728 743 758 775 793 811 828 842 851 856 856 853 853 869 894 919 944 970 995 1016 1032 1045 1055 1064 1071 1078 1082 -9999 -9999 -9999 -9999 -9999 -9999 -9999 -9999 -9999 -9999 -9999 -9999 -9999 -9999 -9999 -9999 -9999 -9999 -9999 -9999 -9999
1265 1248 1229 1208 1186 1165 1146 1127 1109 1089 1067 1040 1011 980 980 1010 1031 1045 1052 1055 1054 1049 1037 1018 993 1019 1040 1053 1058 1057 1057 1058 1062 1070 1081 1095 1109 1124 1139 1155 1172 1193 1218 1247 1278 1307 1331 1347 1357 1361 1361 1360 1357 1352 1346 1339 1331 1323 1316 1309 1302 1295 1286 1277 1267 1258 1248 1238 1229 1219 1210 1201 1193 1184 1177 1170 1164 1159 1156 1154 1153 1152 1151 1150 1149 1148 1145 1141 1135 1127 1117 1105 1092 1078 1064 1048 1032 1015 997 980 965 952 941 930 920 909 897 881 862 840 815 787 788 795 802 809 814 818 820 821 820 819 819 818 818 818 818 818 817 817 817 819 819 819 820 823 827 832 837 842 848 854 861 866 869 870 866 858 846 833 819 805 792 779 767 756 746 733 718 699 679 659 639 618 597 574 549 565 582 599 615 630 644 658 671 685 699 713 727 742 757 773 790 806 821 832 838 840 836 827 827 864 894 922 949 977 1002 1023 1040 1052 1061 1068 1075 1079 1082 -9999 -9999 -9999 -9999 -9999 -9999 -9999 -9999 -9999 -9999 -9999 -9999 -9999 -9999 -9999 -9999 -9999 -9999 -9999 -9999 -9999
1263 1246 1228 1207 1186 1165 1146 1129 1112 1095 1076 1054 1028 998 971 990 1011 1026 1036 1042 1043 1040 1029 1011 985 1009 1029 1040 1045 1046 1046 1048 1054 1062 1074 1088 1102 1117 1132 1148 1164 1184 1208 1236 1266 1294 1318 1335 1345 1349 1349 1349 1346 1343 1337 1330 1322 1315 1310 1304 1298 1291 1283 1274 1265 1255 1246 1236 1226 1217 1208 1199 1190 1182 1174 1167 1161 1156 1152 1150 1149 1148 1147 1146 1146 1145 1143 1139 1133 1124 1112 1098 1084 1069 1054 1040 1025 1009 992 976 961 948 936 926 916 906 895 881 864 843 819 793 771 780 786 792 797 801 804 806 806 806 806 805 805 805 805 805 804 804 805 806 807 807 808 811 815 819 824 829 835 841 847 853 857 859 856 850 840 829 816 804 792 779 768 758 748 735 718 699 678 657 637 616 594 572 548 565 583 600 616 631 644 657 670 683 697 711 726 740 755 770 786 801 813 821 824 823 817 805 832 864 895 924 953 982 1008 1029 1045 1057 1066 1072 1076 1079 -9999 -9999 -9999 -9999 -9999 -9999 -9999 -9999 -9999 -9999 -9999 -9999 -9999 -9999 -9999 -9999 -9999 -9999 -9999 -9999 -9999 -9999
1259 1243 1225 1204 1183 1163 1144 1127 1111 1096 1081 1062 1038 1007 964 964 989 1007 1020 1028 1031 1030 1021 1003 978 999 1017 1028 1033 1034 1036 1040 1046 1055 1067 1081 1095 1111 1126 1141 1158 1176 1198 1224 1252 1280 1303 1320 1329 1333 1334 1334 1333 1330 1325 1318 1311 1306 1302 1298 1294 1288 1280 1271 1262 1252 1243 1233 1224 1214 1205 1196 1188 1180 1172 1165 1158 1153 1149 1146 1144 1143 1142 1142 1142 1142 1140 1136 1130 1120 1108 1092 1076 1059 1043 1028 1014 999 983 968 954 941 929 919 909 900 890 878 862 843 820 795 767 767 768 774 779 784 788 790 792 793 793 792 792 792 792 792 791 791 792 793 794 795 797 799 803 808 812 816 821 827 834 840 844 846 844 839 831 821 810 800 789 778 768 758 748 734 717 697 676 655 634 614 592 570 546 564 582 600 616 630 643 656 668 681 695 709 724 738 753 768 782 794 804 809 809 806 802 802 833 864 896 926 957 986 1011 1032 1048 1060 1068 1074 1077 -9999 -9999 -9999 -9999 -9999 -9999 -9999 -9999 -9999 -9999 -9999 -9999 -9999 -9999 -9999 -9999 -9999 -9999 -9999 -9999 -9999 -9999 -9999
1254 1238 1220 1200 1179 1158 1138 1120 1106 1092 1079 1063 1043 1016 983 956 970 988 1003 1013 1019 1020 1012 995 971 989 1005 1015 1020 1023 1026 1031 1039 1049 1061 1075 1089 1105 1120 1136 1152 1169 1190 1214 1240 1265 1287 1302 1311 1315 1317 1318 1318 1316 1311 1304 1299 1296 1294 1292 1289 1284 1277 1268 1259 1249 1240 1230 1220 1211 1202 1193 1185 1177 1169 1162 1156 1150 1145 1142 1140 1139 1138 1138 1138 1138 1136 1132 1126 1117 1103 1087 1068 1049 1031 1015 1000 986 972 959 945 932 921 910 900 892 882 872 858 841 821 799 775 754 746 755 761 766 770 774 777 779 780 779 779 779 779 779 778 777 778 780 782 783 785 788 792 796 800 804 809 814 821 827 831 833 832 827 820 811 801 792 783 774 764 755 744 730 712 693 672 652 631 611 590 567 544 562 580 598 614 628 641 654 666 679 693 707 722 736 750 764 777 787 793 795 793 786 786 807 834 864 895 927 958 988 1013 1033 1049 1061 1069 1074 -9999 -9999 -9999 -9999 -9999 -9999 -9999 -9999 -9999 -9999 -9999 -9999 -9999 -9999 -9999 -9999 -9999 -9999 -9999 -9999 -9999 -9999 -9999 -9999
