NCOLS 220
NROWS 32
XLLCORNER 701950
YLLCORNER 5110490
CELLSIZE 10.0
NODATA_VALUE -9999
-9999.0 -9999.0 -9999.0 -9999.0 -9999.0 -9999.0 -9999.0 -9999.0 -9999.0 -9999.0 -9999.0 -9999.0 -9999.0 -9999.0 -9999.0 -9999.0 -9999.0 -9999.0 -9999.0 -9999.0 -9999.0 -9999.0 -9999.0 -9999.0 -9999.0 -9999.0 -9999.0 -9999.0 -9999.0 -9999.0 -9999.0 -9999.0 -9999.0 -9999.0 -9999.0 -9999.0 -9999.0 -9999.0 1225.5340576171875 1220.0439453125 1215.2740478515625 1209.5040283203125 1205.7950439453125 1202.0150146484375 1199.31494140625 1197.2760009765625 1194.3160400390625 1193.156005859375 1192.7769775390625 1190.93701171875 1191.68701171875 1193.47802734375 1193.718017578125 1193.89794921875 1194.3590087890625 1193.5889892578125 1195.218994140625 1195.739990234375 1195.530029296875 1194.0400390625 1192.6109619140625 1192.031005859375 1194.1810302734375 1194.9620361328125 1194.9520263671875 1202.6219482421875 1210.1529541015625 1213.532958984375 1216.762939453125 1219.654052734375 1221.803955078125 1224.0439453125 1227.93505859375 1232.635009765625 1238.5350341796875 1244.946044921875 1252.0860595703125 1258.885986328125 1267.68701171875 1274.197021484375 1280.2969970703125 1287.0970458984375 1293.508056640625 1299.677978515625 1305.5679931640625 1312.5789794921875 1319.218994140625 1327.1490478515625 1334.5799560546875 1341.8599853515625 1349.3499755859375 1358.9610595703125 1367.970947265625 1376.4510498046875 1393.281982421875 1405.02197265625 1413.9019775390625 1421.2430419921875 1429.9229736328125 1440.072998046875 1457.614013671875 1479.7840576171875 1490.553955078125 1499.7650146484375 1517.10498046875 1540.905029296875 1563.166015625 1570.865966796875 1578.0360107421875 1588.3370361328125 1598.47705078125 1608.5770263671875 1621.0579833984375 1631.988037109375 1644.2779541015625 1644.0589599609375 1645.5389404296875 1646.3690185546875 1647.4990234375 1648.72998046875 1649.4000244140625 1650.8699951171875 1652.52099609375 1655.1409912109375 1657.1109619140625 1659.031982421875 1659.991943359375 1660.7919921875 1661.7230224609375 1661.52294921875 1662.4429931640625 1664.333984375 1663.9639892578125 1662.31396484375 1664.9849853515625 1669.175048828125 1675.35498046875 1680.4659423828125 1683.2760009765625 1684.5660400390625 1685.237060546875 1683.7669677734375 1684.93701171875 1682.93798828125 1689.508056640625 1694.907958984375 1701.7989501953125 1710.3690185546875 1714.3489990234375 1718.8289794921875 1722.2900390625 1729.81005859375 1735.31005859375 1734.3709716796875 1735.1209716796875 1742.1610107421875 1747.0419921875 1749.56201171875 1758.4620361328125 1763.31298828125 1764.762939453125 1766.7530517578125 1771.06396484375 1771.833984375 1770.093994140625 1770.5250244140625 1769.7950439453125 1772.0450439453125 1778.4959716796875 1781.3160400390625 1784.7259521484375 1784.6669921875 1786.3370361328125 1788.0670166015625 1789.16796875 1789.8680419921875 1790.157958984375 1790.3790283203125 1791.198974609375 1790.8590087890625 1792.3590087890625 1792.5799560546875 1794.1500244140625 1795.9599609375 1798.1910400390625 1800.791015625 1803.6510009765625 1806.35205078125 1809.6619873046875 1813.9520263671875 -9999.0 -9999.0 -9999.0 -9999.0 -9999.0 -9999.0 -9999.0 -9999.0 -9999.0 -9999.0 -9999.0 -9999.0 -9999.0 -9999.0 -9999.0 -9999.0 -9999.0 -9999.0 -9999.0 -9999.0 -9999.0 -9999.0 -9999.0 -9999.0 -9999.0 -9999.0 -9999.0 -9999.0 -9999.0 -9999.0
-9999.0 -9999.0 -9999.0 -9999.0 -9999.0 -9999.0 -9999.0 -9999.0 -9999.0 -9999.0 -9999.0 -9999.0 -9999.0 -9999.0 -9999.0 -9999.0 -9999.0 -9999.0 -9999.0 -9999.0 -9999.0 -9999.0 -9999.0 -9999.0 -9999.0 -9999.0 -9999.0 -9999.0 -9999.0 -9999.0 -9999.0 -9999.0 -9999.0 -9999.0 -9999.0 -9999.0 -9999.0 -9999.0 -9999.0 -9999.0 1211.385009765625 1207.0450439453125 1202.5159912109375 1199.7359619140625 1196.4759521484375 1193.427001953125 1191.18701171875 1190.7469482421875 1189.2679443359375 1189.41796875 1191.177978515625 1192.68798828125 1192.72900390625 1192.5589599609375 1190.6199971171875 1192.949951171875 1193.489990234375 1195.0899658203125 1194.1710205078125 1193.1810302734375 1190.720947265625 1191.8719482421875 1193.3919677734375 1193.06201171875 1197.9229736328125 1206.6629638671875 1210.56298828125 1212.8740234375 1215.4139404296875 1218.2239990234375 1220.5450439453125 1223.60498046875 1227.7349853515625 1233.2359619140625 1239.666015625 1246.365966796875 1252.45703125 1260.0770263671875 1266.5870361328125 1272.3179931640625 1280.2080078125 1286.5579833984375 1293.468994140625 1300.3289794921875 1307.3289794921875 1313.9599609375 1321.1500244140625 1328.5999755859375 1337.6700439453125 1344.6810302734375 1352.8709716796875 1360.541015625 1369.3819580078125 1377.2020263671875 1387.60205078125 1407.4730224609375 1415.843017578125 1424.4930419921875 1436.2239990234375 1444.4940185546875 1463.0439453125 1476.885009765625 1486.68505859375 1493.594970703125 1506.0860595703125 1529.595947265625 1554.3060302734375 1564.7469482421875 1576.5269775390625 1585.18701171875 1594.887939453125 1605.8580322265625 1618.91796875 1634.6390380859375 1644.178955078125 1654.009033203125 1655.1199951171875 1654.7900390625 1655.3299560546875 1656.23095703125 1656.4610595703125 1658.291015625 1660.291015625 1662.261962890625 1664.4320068359375 1665.9320068359375 1667.2430419921875 1668.052978515625 1668.1829833984375 1668.5340576171875 1670.7340087890625 1671.7640380859375 1670.9949951171875 1669.68505859375 1669.324951171875 1674.7459716796875 1680.865966796875 1687.615966796875 1691.7469482421875 1691.886962890625 1692.677001953125 1691.508056640625 1691.718017578125 1690.8480224609375 1696.7889404296875 1702.1090087890625 1706.989013671875 1714.5799560546875 1724.1500244140625 1727.6199951171875 1729.7110595703125 1733.8509521484375 1739.8909912109375 1743.8719482421875 1744.4520263671875 1744.751953125 1752.4820556640625 1759.2530517578125 1762.4630126953125 1768.02294921875 1770.64404296875 1772.7340087890625 1776.1839599609375 1777.7850341796875 1777.56494140625 1776.5250244140625 1776.5460205078125 1778.5560302734375 1782.906005859375 1785.7969970703125 1787.20703125 1788.64697265625 1790.8179931640625 1791.97802734375 1793.66796875 1793.6290283203125 1793.9090576171875 1794.1590576171875 1794.469970703125 1794.77001953125 1795.260009765625 1796.31103515625 1797.6510009765625 1798.6710205078125 1801.2010498046875 1803.281982421875 1806.092041015625 1808.8819580078125 1812.4730224609375 -9999.0 -9999.0 -9999.0 -9999.0 -9999.0 -9999.0 -9999.0 -9999.0 -9999.0 -9999.0 -9999.0 -9999.0 -9999.0 -9999.0 -9999.0 -9999.0 -9999.0 -9999.0 -9999.0 -9999.0 -9999.0 -9999.0 -9999.0 -9999.0 -9999.0 -9999.0 -9999.0 -9999.0 -9999.0 -9999.0 -9999.0
-9999.0 -9999.0 -9999.0 -9999.0 -9999.0 -9999.0 -9999.0 -9999.0 -9999.0 -9999.0 -9999.0 -9999.0 -9999.0 -9999.0 -9999.0 -9999.0 -9999.0 -9999.0 -9999.0 -9999.0 -9999.0 -9999.0 -9999.0 -9999.0 -9999.0 -9999.0 -9999.0 -9999.0 -9999.0 -9999.0 -9999.0 -9999.0 -9999.0 -9999.0 -9999.0 -9999.0 -9999.0 -9999.0 -9999.0 -9999.0 -9999.0 1203.635986328125 1200.5760498046875 1197.3370361328125 1193.95703125 1191.1070556640625 1189.6280517578125 1188.91796875 1187.657958984375 1189.76904296875 1191.1190185546875 1191.18896484375 1190.72998046875 1190.6199951171875 1190.8399658203125 1191.281005859375 1191.6409912109375 1192.7509765625 1192.4620361328125 1192.092041015625 1189.491943359375 1191.261962890625 1192.623046875 1192.5830078125 1198.7530517578125 1206.9539794921875 1209.7139892578125 1213.5340576171875 1217.364990234375 1219.5550537109375 1221.9949951171875 1224.7860107421875 1228.4859619140625 1233.39599609375 1240.126953125 1247.5469970703125 1254.197021484375 1261.9580078125 1267.5679931640625 1274.697998046875 1281.3089599609375 1287.989013671875 1295.0389404296875 1301.5400390625 1308.1400146484375 1315.1500244140625 1322.010986328125 1329.801025390625 1338.56103515625 1346.6219482421875 1354.761962890625 1362.27197265625 1370.2130126953125 1379.113037109375 1389.623046875 1407.073974609375 1416.083984375 1424.2440185546875 1435.9239501953125 1444.9449462890625 1458.7249755859375 1470.7249755859375 1479.7659912109375 1489.8060302734375 1503.0660400390625 1532.5970458984375 1557.376953125 1568.487060546875 1581.1180419921875 1590.2779541015625 1599.0679931640625 1608.009033203125 1618.5589599609375 1632.3990478515625 1644.0 1658.93994140625 1663.239990234375 1662.321044921875 1663.4610595703125 1664.06103515625 1664.1719970703125 1665.4420166015625 1667.1619873046875 1669.873046875 1671.883056640625 1672.79296875 1674.1839599609375 1674.364013671875 1676.114013671875 1677.0439453125 1677.875 1678.614990234375 1678.43505859375 1677.406005859375 1676.5460205078125 1679.8260498046875 1685.7669677734375 1691.8070068359375 1698.386962890625 1699.657958984375 1700.758056640625 1699.637939453125 1698.428955078125 1697.8790283203125 1701.218994140625 1708.0799560546875 1714.47998046875 1721.5699462890625 1727.740966796875 1734.5810546875 1737.4610595703125 1740.1219482421875 1745.10205078125 1752.08203125 1756.06298828125 1754.3929443359375 1758.6429443359375 1765.1939697265625 1770.2239990234375 1773.843994140625 1776.9139404296875 1779.2449951171875 1781.385009765625 1783.135009765625 1783.9959716796875 1783.2060546875 1784.3060302734375 1784.876953125 1788.22705078125 1789.5369873046875 1790.43798828125 1792.6180419921875 1794.66796875 1796.18896484375 1796.708984375 1797.448974609375 1797.6600341796875 1797.9300537109375 1798.6400146484375 1798.740966796875 1799.321044921875 1800.06103515625 1800.031982421875 1801.7919921875 1804.342041015625 1807.093017578125 1809.052978515625 1811.843017578125 -9999.0 -9999.0 -9999.0 -9999.0 -9999.0 -9999.0 -9999.0 -9999.0 -9999.0 -9999.0 -9999.0 -9999.0 -9999.0 -9999.0 -9999.0 -9999.0 -9999.0 -9999.0 -9999.0 -9999.0 -9999.0 -9999.0 -9999.0 -9999.0 -9999.0 -9999.0 -9999.0 -9999.0 -9999.0 -9999.0 -9999.0 -9999.0
-9999.0 -9999.0 -9999.0 -9999.0 -9999.0 -9999.0 -9999.0 -9999.0 -9999.0 -9999.0 -9999.0 -9999.0 -9999.0 -9999.0 -9999.0 -9999.0 -9999.0 -9999.0 -9999.0 -9999.0 -9999.0 -9999.0 -9999.0 -9999.0 -9999.0 -9999.0 -9999.0 -9999.0 -9999.0 -9999.0 -9999.0 -9999.0 -9999.0 -9999.0 -9999.0 -9999.0 -9999.0 -9999.0 -9999.0 -9999.0 -9999.0 -9999.0 1199.8470458984375 1196.0670166015625 1193.0379638671875 1190.5880126953125 1187.998046875 1185.989013671875 1187.958984375 1188.5589599609375 1189.47998046875 1189.260009765625 1189.280029296875 1187.281005859375 1191.240966796875 1190.2509765625 1189.9119873046875 1189.9820556640625 1190.8919677734375 1189.262939453125 1188.9830322265625 1190.85302734375 1191.14404296875 1192.10400390625 1199.553955078125 1208.2850341796875 1210.64501953125 1214.405029296875 1218.9959716796875 1222.64599609375 1224.635986328125 1227.5460205078125 1231.45703125 1235.93701171875 1242.47705078125 1249.0880126953125 1256.0880126953125 1264.177978515625 1270.0389404296875 1276.259033203125 1283.208984375 1290.3399658203125 1296.949951171875 1303.4200439453125 1309.6910400390625 1316.1209716796875 1322.7509765625 1330.072021484375 1338.511962890625 1346.322021484375 1355.10302734375 1362.9730224609375 1369.27294921875 1376.593994140625 1390.073974609375 1408.343994140625 1418.14501953125 1425.175048828125 1434.7049560546875 1444.5460205078125 1459.0660400390625 1465.6259765625 1474.8170166015625 1495.636962890625 1513.447021484375 1534.7869873046875 1562.5379638671875 1570.3580322265625 1583.89794921875 1596.6590576171875 1606.178955078125 1612.968994140625 1621.4599609375 1629.3699951171875 1643.77001953125 1656.970947265625 1670.760986328125 1670.051025390625 1670.531982421875 1671.1619873046875 1670.802001953125 1672.262939453125 1674.6529541015625 1677.29296875 1679.7039794921875 1680.3740234375 1681.593994140625 1682.68505859375 1683.9150390625 1683.925048828125 1684.2159423828125 1685.60595703125 1685.7559814453125 1684.64599609375 1684.14697265625 1685.876953125 1691.0970458984375 1696.6180419921875 1702.8580322265625 1708.157958984375 1708.4189453125 1707.1490478515625 1705.9189453125 1705.1800537109375 1708.8800048828125 1712.7900390625 1716.98095703125 1724.801025390625 1731.490966796875 1738.35205078125 1744.8719482421875 1746.4219970703125 1750.9730224609375 1757.1529541015625 1762.6829833984375 1763.60400390625 1765.85400390625 1771.4940185546875 1776.5250244140625 1779.14501953125 1782.5150146484375 1784.7550048828125 1786.2659912109375 1789.0460205078125 1790.1259765625 1790.2869873046875 1790.626953125 1791.217041015625 1792.89794921875 1792.91796875 1795.0179443359375 1796.3990478515625 1798.678955078125 1800.0889892578125 1801.219970703125 1801.1700439453125 1800.93994140625 1801.48095703125 1801.1409912109375 1802.1810302734375 1802.052001953125 1802.3819580078125 1803.4420166015625 1805.9830322265625 1807.79296875 1809.863037109375 1811.6739501953125 -9999.0 -9999.0 -9999.0 -9999.0 -9999.0 -9999.0 -9999.0 -9999.0 -9999.0 -9999.0 -9999.0 -9999.0 -9999.0 -9999.0 -9999.0 -9999.0 -9999.0 -9999.0 -9999.0 -9999.0 -9999.0 -9999.0 -9999.0 -9999.0 -9999.0 -9999.0 -9999.0 -9999.0 -9999.0 -9999.0 -9999.0 -9999.0 -9999.0
-9999.0 -9999.0 -9999.0 -9999.0 -9999.0 -9999.0 -9999.0 -9999.0 -9999.0 -9999.0 -9999.0 -9999.0 -9999.0 -9999.0 -9999.0 -9999.0 -9999.0 -9999.0 -9999.0 -9999.0 -9999.0 -9999.0 -9999.0 -9999.0 -9999.0 -9999.0 -9999.0 -9999.0 -9999.0 -9999.0 -9999.0 -9999.0 -9999.0 -9999.0 -9999.0 -9999.0 -9999.0 -9999.0 -9999.0 -9999.0 -9999.0 -9999.0 -9999.0 1194.0579833984375 1190.97802734375 1188.8790283203125 1185.8590087890625 1186.009033203125 1186.3199462890625 1187.949951171875 1187.699951171875 1186.791015625 1187.4510498046875 1187.1109619140625 1188.3919677734375 1188.6219482421875 1188.6820068359375 1187.2230224609375 1189.1429443359375 1188.113037109375 1186.593994140625 1190.404052734375 1189.4439697265625 1191.2249755859375 1198.655029296875 1207.385009765625 1210.7960205078125 1214.916015625 1219.0860595703125 1224.0870361328125 1227.22705078125 1230.136962890625 1234.0379638671875 1237.887939453125 1243.5980224609375 1250.178955078125 1257.8590087890625 1263.6590576171875 1271.489013671875 1277.6500244140625 1283.9100341796875 1290.949951171875 1296.791015625 1302.220947265625 1307.6910400390625 1314.2120361328125 1320.9119873046875 1327.751953125 1334.1829833984375 1341.613037109375 1349.613037109375 1357.343994140625 1364.64404296875 1373.2239990234375 1385.1650390625 1404.4849853515625 1418.635009765625 1427.2960205078125 1435.426025390625 1445.14599609375 1454.0269775390625 1461.97705078125 1475.2669677734375 1498.758056640625 1511.3680419921875 1534.14794921875 1563.6689453125 1575.198974609375 1594.0389404296875 1603.8489990234375 1608.9300537109375 1614.969970703125 1623.3900146484375 1633.490966796875 1646.9510498046875 1662.9010009765625 1670.1920166015625 1672.4620361328125 1675.08203125 1677.2330322265625 1678.2030029296875 1678.52294921875 1681.7239990234375 1685.114013671875 1687.0439453125 1687.93505859375 1688.7349853515625 1690.0150146484375 1690.68603515625 1690.7860107421875 1692.0260009765625 1693.5469970703125 1693.197021484375 1691.6669921875 1691.657958984375 1692.8079833984375 1696.407958984375 1702.678955078125 1709.22900390625 1714.948974609375 1716.6689453125 1714.739990234375 1713.0 1712.27001953125 1715.071044921875 1718.220947265625 1723.490966796875 1729.072021484375 1734.60205078125 1741.1419677734375 1748.0030517578125 1753.093017578125 1756.9530029296875 1761.5439453125 1767.4940185546875 1771.9940185546875 1774.405029296875 1777.7049560546875 1780.9749755859375 1783.5460205078125 1787.095947265625 1789.5660400390625 1792.0469970703125 1792.93701171875 1794.717041015625 1795.4169921875 1795.0479736328125 1796.2879638671875 1795.748046875 1796.779052734375 1798.6390380859375 1800.01904296875 1802.449951171875 1804.030029296875 1805.260009765625 1805.06103515625 1805.1810302734375 1804.970947265625 1805.1419677734375 1805.1319580078125 1805.1519775390625 1805.5830078125 1807.1629638671875 1809.1529541015625 1810.303955078125 -9999.0 -9999.0 -9999.0 -9999.0 -9999.0 -9999.0 -9999.0 -9999.0 -9999.0 -9999.0 -9999.0 -9999.0 -9999.0 -9999.0 -9999.0 -9999.0 -9999.0 -9999.0 -9999.0 -9999.0 -9999.0 -9999.0 -9999.0 -9999.0 -9999.0 -9999.0 -9999.0 -9999.0 -9999.0 -9999.0 -9999.0 -9999.0 -9999.0 -9999.0 -9999.0
-9999.0 -9999.0 -9999.0 -9999.0 -9999.0 -9999.0 -9999.0 -9999.0 -9999.0 -9999.0 -9999.0 -9999.0 -9999.0 -9999.0 -9999.0 -9999.0 -9999.0 -9999.0 -9999.0 -9999.0 -9999.0 -9999.0 -9999.0 -9999.0 -9999.0 -9999.0 -9999.0 -9999.0 -9999.0 -9999.0 -9999.0 -9999.0 -9999.0 -9999.0 -9999.0 -9999.0 -9999.0 -9999.0 -9999.0 -9999.0 -9999.0 -9999.0 -9999.0 -9999.0 1188.529052734375 1186.1099853515625 1183.9599609375 1185.56005859375 1185.740966796875 1187.3409423828125 1186.52099609375 1185.4620361328125 1186.4320068359375 1187.06201171875 1186.9219970703125 1187.29296875 1186.60302734375 1186.7030029296875 1188.0140380859375 1187.2840576171875 1185.9339599609375 1189.375 1188.9649658203125 1191.7950439453125 1198.7960205078125 1206.7060546875 1211.135986328125 1215.47705078125 1219.7669677734375 1224.0570068359375 1227.927978515625 1231.9580078125 1235.91796875 1239.6290283203125 1244.72900390625 1251.01904296875 1257.5400390625 1262.77001953125 1268.9100341796875 1275.490966796875 1282.1409912109375 1287.760986328125 1293.27197265625 1298.1219482421875 1304.02197265625 1310.85205078125 1317.7530517578125 1324.9930419921875 1333.1929931640625 1340.5240478515625 1348.053955078125 1356.2740478515625 1364.094970703125 1371.844970703125 1380.2149658203125 1399.9959716796875 1415.3160400390625 1423.916015625 1432.8570556640625 1442.947021484375 1452.217041015625 1462.197998046875 1479.177978515625 1492.738037109375 1506.1490478515625 1533.5389404296875 1558.1090087890625 1574.8900146484375 1590.719970703125 1599.97998046875 1603.7010498046875 1609.8909912109375 1622.821044921875 1633.741943359375 1643.85205078125 1660.2320556640625 1664.8919677734375 1668.4530029296875 1672.29296875 1676.8330078125 1681.4139404296875 1684.823974609375 1688.1839599609375 1692.1650390625 1693.81494140625 1694.5350341796875 1695.406005859375 1696.5360107421875 1697.0059814453125 1697.70703125 1698.9169921875 1700.5570068359375 1700.5980224609375 1699.718017578125 1699.468017578125 1699.5489501953125 1703.0589599609375 1706.7889404296875 1714.010009765625 1719.8399658203125 1724.06005859375 1722.02099609375 1720.3509521484375 1719.73095703125 1722.4410400390625 1722.9119873046875 1729.7320556640625 1735.362060546875 1739.7430419921875 1745.4429931640625 1751.302978515625 1757.4239501953125 1762.4239501953125 1766.9840087890625 1772.824951171875 1777.2750244140625 1781.9549560546875 1783.89599609375 1786.0660400390625 1789.345947265625 1792.427001953125 1794.70703125 1795.93701171875 1796.238037109375 1798.2679443359375 1799.927978515625 1799.9189453125 1799.029052734375 1799.7490234375 1800.6390380859375 1802.4599609375 1804.260009765625 1806.1199951171875 1807.571044921875 1808.8909912109375 1808.8609619140625 1808.991943359375 1808.35205078125 1808.2320556640625 1808.56298828125 1808.2530517578125 1808.883056640625 1809.9239501953125 -9999.0 -9999.0 -9999.0 -9999.0 -9999.0 -9999.0 -9999.0 -9999.0 -9999.0 -9999.0 -9999.0 -9999.0 -9999.0 -9999.0 -9999.0 -9999.0 -9999.0 -9999.0 -9999.0 -9999.0 -9999.0 -9999.0 -9999.0 -9999.0 -9999.0 -9999.0 -9999.0 -9999.0 -9999.0 -9999.0 -9999.0 -9999.0 -9999.0 -9999.0 -9999.0 -9999.0 -9999.0
-9999.0 -9999.0 -9999.0 -9999.0 -9999.0 -9999.0 -9999.0 -9999.0 -9999.0 -9999.0 -9999.0 -9999.0 -9999.0 -9999.0 -9999.0 -9999.0 -9999.0 -9999.0 -9999.0 -9999.0 -9999.0 -9999.0 -9999.0 -9999.0 -9999.0 -9999.0 -9999.0 -9999.0 -9999.0 -9999.0 -9999.0 -9999.0 -9999.0 -9999.0 -9999.0 -9999.0 -9999.0 -9999.0 -9999.0 -9999.0 -9999.0 -9999.0 -9999.0 -9999.0 -9999.0 1184.5400390625 1183.1610107421875 1183.9610595703125 1185.220947265625 1186.02197265625 1184.7120361328125 1183.741943359375 1185.302978515625 1185.762939453125 1185.4029541015625 1185.6739501953125 1184.134033203125 1185.3740234375 1186.56494140625 1185.614990234375 1185.0450439453125 1185.68603515625 1186.9659423828125 1192.0760498046875 1199.676025390625 1206.22705078125 1212.2569580078125 1215.93701171875 1219.7679443359375 1223.72802734375 1227.6080322265625 1232.3489990234375 1237.0389404296875 1240.72900390625 1245.260009765625 1250.6700439453125 1256.1500244140625 1262.2110595703125 1267.6910400390625 1272.9510498046875 1278.8819580078125 1284.35205078125 1290.8719482421875 1296.79296875 1302.9129638671875 1308.4930419921875 1316.083984375 1324.5140380859375 1332.134033203125 1339.885009765625 1348.0849609375 1355.905029296875 1364.10498046875 1372.1259765625 1380.0860595703125 1391.4859619140625 1413.126953125 1422.886962890625 1432.386962890625 1441.5379638671875 1451.8280029296875 1460.738037109375 1473.239013671875 1484.1190185546875 1504.0489501953125 1535.77001953125 1553.280029296875 1571.8199462890625 1581.7110595703125 1588.821044921875 1596.990966796875 1608.6419677734375 1628.302001953125 1641.6719970703125 1650.8929443359375 1656.262939453125 1660.56298828125 1663.843994140625 1667.14404296875 1671.7540283203125 1677.333984375 1683.0450439453125 1687.885009765625 1692.93505859375 1698.4560546875 1701.166015625 1701.89599609375 1703.0770263671875 1703.677001953125 1704.20703125 1705.7679443359375 1707.927978515625 1708.3580322265625 1707.7490234375 1707.1590576171875 1707.3389892578125 1709.4000244140625 1713.1199951171875 1717.2900390625 1723.801025390625 1729.9510498046875 1729.48095703125 1727.592041015625 1726.6820068359375 1731.112060546875 1730.0030517578125 1733.1529541015625 1740.4229736328125 1746.2430419921875 1750.6939697265625 1756.0040283203125 1761.573974609375 1767.875 1772.344970703125 1777.2349853515625 1782.946044921875 1786.8160400390625 1788.656005859375 1791.0369873046875 1794.386962890625 1797.0570068359375 1798.5780029296875 1800.2080078125 1799.9580078125 1801.5689697265625 1803.5689697265625 1801.468994140625 1801.719970703125 1802.8499755859375 1803.8399658203125 1806.0810546875 1808.010986328125 1810.010986328125 1811.321044921875 1811.9320068359375 1812.4520263671875 1811.6920166015625 1811.552978515625 1811.802978515625 1811.4630126953125 1811.343994140625 1811.5040283203125 -9999.0 -9999.0 -9999.0 -9999.0 -9999.0 -9999.0 -9999.0 -9999.0 -9999.0 -9999.0 -9999.0 -9999.0 -9999.0 -9999.0 -9999.0 -9999.0 -9999.0 -9999.0 -9999.0 -9999.0 -9999.0 -9999.0 -9999.0 -9999.0 -9999.0 -9999.0 -9999.0 -9999.0 -9999.0 -9999.0 -9999.0 -9999.0 -9999.0 -9999.0 -9999.0 -9999.0 -9999.0 -9999.0
-9999.0 -9999.0 -9999.0 -9999.0 -9999.0 -9999.0 -9999.0 -9999.0 -9999.0 -9999.0 -9999.0 -9999.0 -9999.0 -9999.0 -9999.0 -9999.0 -9999.0 -9999.0 -9999.0 -9999.0 -9999.0 -9999.0 -9999.0 -9999.0 -9999.0 -9999.0 -9999.0 -9999.0 -9999.0 -9999.0 -9999.0 -9999.0 -9999.0 -9999.0 -9999.0 -9999.0 -9999.0 -9999.0 -9999.0 -9999.0 -9999.0 -9999.0 -9999.0 -9999.0 -9999.0 1183.6610107421875 1181.9510498046875 1182.60205078125 1184.1719970703125 1184.9720458984375 1183.4730224609375 1183.10302734375 1183.02294921875 1184.5340576171875 1183.053955078125 1184.093994140625 1183.2550048828125 1183.7149658203125 1184.9749755859375 1184.4560546875 1182.9859619140625 1183.7359619140625 1185.906982421875 1193.876953125 1201.93701171875 1206.157958984375 1213.637939453125 1216.93798828125 1220.3990478515625 1223.9189453125 1227.47900390625 1231.8189697265625 1236.3299560546875 1241.3599853515625 1245.6099853515625 1251.8409423828125 1257.1510009765625 1261.970947265625 1268.2220458984375 1273.4219970703125 1278.592041015625 1284.7530517578125 1291.322998046875 1297.512939453125 1304.1939697265625 1310.4139404296875 1316.7740478515625 1323.7449951171875 1331.4150390625 1338.14501953125 1347.60595703125 1355.926025390625 1363.615966796875 1372.116943359375 1383.5870361328125 1395.2469482421875 1407.218017578125 1422.3580322265625 1431.39794921875 1438.238037109375 1447.279052734375 1455.7490234375 1463.3389892578125 1476.3900146484375 1495.8699951171875 1534.77001953125 1551.5009765625 1564.27099609375 1576.260986328125 1584.8719482421875 1593.02197265625 1614.60205078125 1630.5830078125 1642.7130126953125 1648.113037109375 1652.1839599609375 1655.1639404296875 1658.31396484375 1661.4749755859375 1665.9949951171875 1672.324951171875 1677.4859619140625 1683.1259765625 1690.2960205078125 1696.0760498046875 1702.447021484375 1707.3470458984375 1710.156982421875 1710.718017578125 1711.5780029296875 1712.9580078125 1715.0989990234375 1715.529052734375 1715.26904296875 1716.550048828125 1716.22998046875 1716.06005859375 1718.77099609375 1723.0909423828125 1727.81103515625 1734.501953125 1737.4119873046875 1735.27197265625 1734.3330078125 1736.1429443359375 1739.762939453125 1738.4739990234375 1743.114013671875 1750.0439453125 1755.175048828125 1759.8349609375 1766.4649658203125 1773.60498046875 1778.64599609375 1783.4560546875 1788.60595703125 1791.0469970703125 1794.1669921875 1796.7669677734375 1798.488037109375 1800.6280517578125 1802.197998046875 1804.208984375 1803.8089599609375 1803.708984375 1804.1099853515625 1802.77001953125 1804.489990234375 1805.791015625 1807.7010498046875 1809.3509521484375 1811.31201171875 1812.7120361328125 1813.7020263671875 1814.261962890625 1814.6729736328125 1814.302978515625 1813.9229736328125 -9999.0 -9999.0 -9999.0 -9999.0 -9999.0 -9999.0 -9999.0 -9999.0 -9999.0 -9999.0 -9999.0 -9999.0 -9999.0 -9999.0 -9999.0 -9999.0 -9999.0 -9999.0 -9999.0 -9999.0 -9999.0 -9999.0 -9999.0 -9999.0 -9999.0 -9999.0 -9999.0 -9999.0 -9999.0 -9999.0 -9999.0 -9999.0 -9999.0 -9999.0 -9999.0 -9999.0 -9999.0 -9999.0 -9999.0 -9999.0 -9999.0 -9999.0
-9999.0 -9999.0 -9999.0 -9999.0 -9999.0 -9999.0 -9999.0 -9999.0 -9999.0 -9999.0 -9999.0 -9999.0 -9999.0 -9999.0 -9999.0 -9999.0 -9999.0 -9999.0 -9999.0 -9999.0 -9999.0 -9999.0 -9999.0 -9999.0 -9999.0 -9999.0 -9999.0 -9999.0 -9999.0 -9999.0 -9999.0 -9999.0 -9999.0 -9999.0 -9999.0 -9999.0 -9999.0 -9999.0 -9999.0 -9999.0 -9999.0 -9999.0 -9999.0 -9999.0 -9999.0 1183.322021484375 1180.60205078125 1182.1219482421875 1183.3330078125 1183.85302734375 1181.4229736328125 1181.6639404296875 1182.0439453125 1182.634033203125 1180.9749755859375 1183.14501953125 1182.4150390625 1181.5059814453125 1183.9560546875 1181.656005859375 1181.3370361328125 1185.3070068359375 1188.447021484375 1194.637939453125 1202.7779541015625 1206.657958984375 1211.5589599609375 1216.2989501953125 1220.5389404296875 1224.6400146484375 1227.7900390625 1232.0899658203125 1236.7509765625 1241.490966796875 1247.2010498046875 1251.802001953125 1258.112060546875 1263.35205078125 1268.08203125 1273.77294921875 1279.1929931640625 1285.2030029296875 1291.303955078125 1297.593994140625 1304.2939453125 1310.6650390625 1317.635009765625 1325.0150146484375 1332.115966796875 1339.095947265625 1346.7659912109375 1356.116943359375 1364.697021484375 1373.677001953125 1383.748046875 1395.3380126953125 1407.0780029296875 1422.1590576171875 1423.6490478515625 1433.1689453125 1442.010009765625 1451.6099853515625 1460.510009765625 1471.8299560546875 1498.240966796875 1529.73095703125 1549.1610107421875 1561.56201171875 1573.08203125 1581.9620361328125 1589.6629638671875 1607.012939453125 1622.322998046875 1631.7540283203125 1641.864013671875 1647.073974609375 1650.885009765625 1653.405029296875 1656.125 1660.3160400390625 1665.9560546875 1671.8759765625 1678.64697265625 1685.3070068359375 1692.0169677734375 1699.738037109375 1706.508056640625 1713.177978515625 1716.8790283203125 1717.759033203125 1719.6490478515625 1721.4090576171875 1722.9100341796875 1722.6400146484375 1723.030029296875 1723.6109619140625 1723.821044921875 1724.4610595703125 1729.8819580078125 1734.2919921875 1741.02197265625 1744.113037109375 1742.843017578125 1742.5030517578125 1744.073974609375 1747.583984375 1746.0140380859375 1748.094970703125 1753.60498046875 1761.0550537109375 1767.166015625 1772.5159912109375 1777.635986328125 1784.676025390625 1788.97705078125 1792.8470458984375 1795.8270263671875 1798.97802734375 1800.488037109375 1801.8079833984375 1803.4990234375 1805.6290283203125 1806.5389404296875 1805.43994140625 1803.708986375 1804.760009765625 1806.0909423828125 1807.23095703125 1808.6810302734375 1810.2120361328125 1811.56201171875 1813.9320068359375 1814.383056640625 1814.31298828125 1815.532958984375 1816.5040283203125 -9999.0 -9999.0 -9999.0 -9999.0 -9999.0 -9999.0 -9999.0 -9999.0 -9999.0 -9999.0 -9999.0 -9999.0 -9999.0 -9999.0 -9999.0 -9999.0 -9999.0 -9999.0 -9999.0 -9999.0 -9999.0 -9999.0 -9999.0 -9999.0 -9999.0 -9999.0 -9999.0 -9999.0 -9999.0 -9999.0 -9999.0 -9999.0 -9999.0 -9999.0 -9999.0 -9999.0 -9999.0 -9999.0 -9999.0 -9999.0 -9999.0 -9999.0 -9999.0 -9999.0
-9999.0 -9999.0 -9999.0 -9999.0 -9999.0 -9999.0 -9999.0 -9999.0 -9999.0 -9999.0 -9999.0 -9999.0 -9999.0 -9999.0 -9999.0 -9999.0 -9999.0 -9999.0 -9999.0 -9999.0 -9999.0 -9999.0 -9999.0 -9999.0 -9999.0 -9999.0 -9999.0 -9999.0 -9999.0 -9999.0 -9999.0 -9999.0 -9999.0 -9999.0 -9999.0 -9999.0 -9999.0 -9999.0 -9999.0 -9999.0 -9999.0 -9999.0 -9999.0 -9999.0 -9999.0 1182.35302734375 1180.1429443359375 1181.133056640625 1181.89404296875 1182.1240234375 1180.323974609375 1180.4449462890625 1180.925048828125 1180.7550048828125 1180.0760498046875 1179.885986328125 1181.2459716796875 1180.676025390625 1180.9969482421875 1179.9969482421875 1182.0870361328125 1184.907958984375 1188.47802734375 1195.3780517578125 1203.0889892578125 1208.3790283203125 1211.76904296875 1214.9300537109375 1218.8299560546875 1223.0999755859375 1227.6209716796875 1232.0909423828125 1236.470947265625 1240.9119873046875 1246.4720458984375 1253.511962890625 1261.012939453125 1266.81298828125 1272.6429443359375 1277.833984375 1282.9539794921875 1288.8740234375 1293.074951171875 1298.7049560546875 1304.7550048828125 1311.344970703125 1318.18603515625 1325.8160400390625 1333.2459716796875 1340.717041015625 1347.7569580078125 1356.45703125 1363.008056640625 1370.93798828125 1379.758056640625 1389.1689453125 1402.8590087890625 1412.198974609375 1421.550048828125 1434.0699462890625 1443.3499755859375 1452.81103515625 1461.7509765625 1473.8310546875 1496.3919677734375 1521.052001953125 1546.9620361328125 1556.6929931640625 1571.6529541015625 1579.613037109375 1586.1729736328125 1601.2139892578125 1612.323974609375 1620.5040283203125 1631.89501953125 1641.4649658203125 1645.4549560546875 1648.0260009765625 1650.5460205078125 1654.5260009765625 1660.5670166015625 1666.2969970703125 1673.7669677734375 1681.0579833984375 1688.0780029296875 1695.3580322265625 1703.279052734375 1712.5789794921875 1720.1490478515625 1723.3900146484375 1725.280029296875 1726.3399658203125 1728.77099609375 1730.1510009765625 1731.3909912109375 1730.9410400390625 1730.9620361328125 1731.56201171875 1735.9720458984375 1741.4229736328125 1748.1929931640625 1751.31298828125 1749.7740478515625 1749.4539794921875 1751.404052734375 1753.5250244140625 1753.0250244140625 1753.7049560546875 1758.2960205078125 1763.8160400390625 1771.9659423828125 1776.866943359375 1783.217041015625 1788.947021484375 1794.177978515625 1797.498046875 1801.0780029296875 1803.677978515625 1805.2490234375 1805.5689697265625 1806.6689453125 1807.760009765625 1806.5999755859375 1804.6700439453125 1804.48095703125 1806.31103515625 1808.1710205078125 1810.1219482421875 1810.85205078125 1811.1419677734375 1812.613037109375 1814.093017578125 1814.0830078125 1813.9339599609375 -9999.0 -9999.0 -9999.0 -9999.0 -9999.0 -9999.0 -9999.0 -9999.0 -9999.0 -9999.0 -9999.0 -9999.0 -9999.0 -9999.0 -9999.0 -9999.0 -9999.0 -9999.0 -9999.0 -9999.0 -9999.0 -9999.0 -9999.0 -9999.0 -9999.0 -9999.0 -9999.0 -9999.0 -9999.0 -9999.0 -9999.0 -9999.0 -9999.0 -9999.0 -9999.0 -9999.0 -9999.0 -9999.0 -9999.0 -9999.0 -9999.0 -9999.0 -9999.0 -9999.0 -9999.0 -9999.0
-9999.0 -9999.0 -9999.0 -9999.0 -9999.0 -9999.0 -9999.0 -9999.0 -9999.0 -9999.0 -9999.0 -9999.0 -9999.0 -9999.0 -9999.0 -9999.0 -9999.0 -9999.0 -9999.0 -9999.0 -9999.0 -9999.0 -9999.0 -9999.0 -9999.0 -9999.0 -9999.0 -9999.0 -9999.0 -9999.0 -9999.0 -9999.0 -9999.0 -9999.0 -9999.0 -9999.0 -9999.0 -9999.0 -9999.0 -9999.0 -9999.0 -9999.0 -9999.0 -9999.0 -9999.0 1180.9429931640625 1179.6240234375 1180.2840576171875 1180.9940185546875 1181.7349853515625 1179.1949462890625 1180.06494140625 1179.7259521484375 1179.6259765625 1178.10595703125 1178.3570556640625 1179.70703125 1179.7769775390625 1179.6280517578125 1180.3179931640625 1181.0379638671875 1184.51904296875 1191.0989990234375 1197.3890380859375 1202.718994140625 1207.18994140625 1210.3499755859375 1213.1600341796875 1217.8909912109375 1222.2010498046875 1225.4210205078125 1229.802001953125 1234.781982421875 1239.822021484375 1246.9530029296875 1253.85302734375 1261.2430419921875 1267.8740234375 1274.4339599609375 1279.583984375 1285.094970703125 1290.39501953125 1295.68505859375 1302.095947265625 1307.5860595703125 1312.7960205078125 1320.39697265625 1325.967041015625 1333.14697265625 1340.0069580078125 1346.718017578125 1360.008056640625 1369.2679443359375 1376.22900390625 1381.01904296875 1388.3590087890625 1398.2099609375 1409.5 1420.3699951171875 1434.6209716796875 1444.73095703125 1454.1710205078125 1465.6419677734375 1479.031982421875 1498.6519775390625 1514.512939453125 1536.552978515625 1548.9530029296875 1562.9239501953125 1574.6739501953125 1580.4139404296875 1596.93505859375 1605.89501953125 1616.385009765625 1625.0050048828125 1632.5460205078125 1638.5560302734375 1642.7659912109375 1645.97705078125 1649.156982421875 1654.927001953125 1660.3680419921875 1669.6180419921875 1678.488037109375 1684.6190185546875 1691.5689697265625 1699.718994140625 1707.0400390625 1714.550048828125 1723.0699462890625 1729.2010498046875 1731.8909912109375 1734.6510009765625 1737.1519775390625 1737.1419677734375 1737.60205078125 1738.1629638671875 1739.2430419921875 1743.512939453125 1747.81298828125 1753.4539794921875 1758.0439453125 1756.7640380859375 1756.5250244140625 1758.10498046875 1760.7449951171875 1760.8060302734375 1760.416015625 1763.7060546875 1769.0069580078125 1774.8570556640625 1783.677001953125 1790.8380126953125 1794.66796875 1798.947998046875 1803.18896484375 1805.93896484375 1808.468994140625 1809.050048828125 1808.93994140625 1807.699951171875 1807.43994140625 1805.4010009765625 1807.31103515625 1805.9610595703125 1806.6319580078125 1809.302001953125 1810.6319580078125 1810.4429931640625 1809.60302734375 1810.072998046875 1810.4439697265625 1812.364013671875 1813.053955078125 -9999.0 -9999.0 -9999.0 -9999.0 -9999.0 -9999.0 -9999.0 -9999.0 -9999.0 -9999.0 -9999.0 -9999.0 -9999.0 -9999.0 -9999.0 -9999.0 -9999.0 -9999.0 -9999.0 -9999.0 -9999.0 -9999.0 -9999.0 -9999.0 -9999.0 -9999.0 -9999.0 -9999.0 -9999.0 -9999.0 -9999.0 -9999.0 -9999.0 -9999.0 -9999.0 -9999.0 -9999.0 -9999.0 -9999.0 -9999.0 -9999.0 -9999.0 -9999.0 -9999.0 -9999.0 -9999.0
-9999.0 -9999.0 -9999.0 -9999.0 -9999.0 -9999.0 -9999.0 -9999.0 -9999.0 -9999.0 -9999.0 -9999.0 -9999.0 -9999.0 -9999.0 -9999.0 -9999.0 -9999.0 -9999.0 -9999.0 -9999.0 -9999.0 -9999.0 -9999.0 -9999.0 -9999.0 -9999.0 -9999.0 -9999.0 -9999.0 -9999.0 -9999.0 -9999.0 -9999.0 -9999.0 -9999.0 -9999.0 -9999.0 -9999.0 -9999.0 -9999.0 -9999.0 -9999.0 -9999.0 -9999.0 1180.06396484375 1178.9840087890625 1178.39501953125 1179.7149658203125 1180.375 1177.9659423828125 1177.93603515625 1177.10595703125 1177.0069580078125 1175.927001953125 1177.0770263671875 1178.1280517578125 1179.5179443359375 1178.177978515625 1179.428955078125 1181.3890380859375 1186.8890380859375 1193.6300048828125 1201.030029296875 1203.1300048828125 1206.9310302734375 1210.6610107421875 1214.1209716796875 1218.302001953125 1222.741943359375 1227.592041015625 1231.9620361328125 1236.10302734375 1240.9029541015625 1246.6729736328125 1252.9439697265625 1261.0439453125 1264.7039794921875 1271.4749755859375 1277.125 1283.0250244140625 1289.345947265625 1294.8360595703125 1301.5059814453125 1306.8170166015625 1313.927001953125 1321.5069580078125 1327.64794921875 1334.1180419921875 1339.8480224609375 1347.3089599609375 1359.8790283203125 1373.718994140625 1380.8900146484375 1388.56005859375 1393.68994140625 1401.0699462890625 1411.81103515625 1419.0009765625 1436.051025390625 1444.3919677734375 1452.531982421875 1468.031982421875 1477.6629638671875 1490.593017578125 1503.4129638671875 1522.1240234375 1543.39404296875 1556.2340087890625 1567.324951171875 1577.7049560546875 1592.68505859375 1603.35595703125 1611.176025390625 1618.0360107421875 1626.156982421875 1632.7469482421875 1637.64697265625 1640.5570068359375 1643.988037109375 1648.3079833984375 1654.947998046875 1662.9189453125 1670.7989501953125 1679.5589599609375 1685.989990234375 1693.3900146484375 1701.719970703125 1709.541015625 1717.1409912109375 1724.5909423828125 1731.6619873046875 1737.6419677734375 1743.1419677734375 1743.1829833984375 1743.873046875 1744.762939453125 1746.7340087890625 1749.134033203125 1752.6739501953125 1757.43505859375 1763.364990234375 1764.3050537109375 1764.844970703125 1765.2559814453125 1767.5860595703125 1768.0560302734375 1767.626953125 1769.8270263671875 1774.93701171875 1781.0780029296875 1786.2979736328125 1793.738037109375 1799.72900390625 1804.2889404296875 1807.8790283203125 1810.52001953125 1812.27001953125 1811.0 1808.8709716796875 1807.260986328125 1806.240966796875 1806.501953125 1807.612060546875 1806.6219482421875 1806.501953125 1807.4830322265625 1808.093017578125 1808.3330078125 1808.1240234375 1807.343994140625 1807.364013671875 1810.2650146484375 -9999.0 -9999.0 -9999.0 -9999.0 -9999.0 -9999.0 -9999.0 -9999.0 -9999.0 -9999.0 -9999.0 -9999.0 -9999.0 -9999.0 -9999.0 -9999.0 -9999.0 -9999.0 -9999.0 -9999.0 -9999.0 -9999.0 -9999.0 -9999.0 -9999.0 -9999.0 -9999.0 -9999.0 -9999.0 -9999.0 -9999.0 -9999.0 -9999.0 -9999.0 -9999.0 -9999.0 -9999.0 -9999.0 -9999.0 -9999.0 -9999.0 -9999.0 -9999.0 -9999.0 -9999.0 -9999.0 -9999.0
-9999.0 -9999.0 -9999.0 -9999.0 -9999.0 -9999.0 -9999.0 -9999.0 -9999.0 -9999.0 -9999.0 -9999.0 -9999.0 -9999.0 -9999.0 -9999.0 -9999.0 -9999.0 -9999.0 -9999.0 -9999.0 -9999.0 -9999.0 -9999.0 -9999.0 -9999.0 -9999.0 -9999.0 -9999.0 -9999.0 -9999.0 -9999.0 -9999.0 -9999.0 -9999.0 -9999.0 -9999.0 -9999.0 -9999.0 -9999.0 -9999.0 -9999.0 -9999.0 -9999.0 -9999.0 1179.1650390625 1178.5450439453125 1177.1259765625 1178.0260009765625 1178.666015625 1177.0159912109375 1175.927001953125 1175.366943359375 1175.2569580078125 1174.43798828125 1176.16796875 1177.64794921875 1179.8690185546875 1177.5789794921875 1179.1190185546875 1183.93994140625 1191.4300537109375 1197.489990234375 1200.1309814453125 1204.81103515625 1208.1610107421875 1211.842041015625 1215.8919677734375 1219.001953125 1223.2430419921875 1227.5030517578125 1232.012939453125 1237.06396484375 1243.134033203125 1249.2340087890625 1255.35400390625 1261.2049560546875 1267.7449951171875 1273.824951171875 1280.2359619140625 1285.845947265625 1292.406005859375 1298.2969970703125 1304.20703125 1309.18701171875 1315.14794921875 1321.488037109375 1328.197998046875 1335.8690185546875 1343.178955078125 1350.6090087890625 1359.260009765625 1373.199951171875 1380.949951171875 1390.4410400390625 1398.1710205078125 1405.4610595703125 1415.56201171875 1423.33203125 1438.7020263671875 1446.06201171875 1453.4129638671875 1461.782958984375 1474.6829833984375 1485.14404296875 1501.9139404296875 1510.2540283203125 1538.7950439453125 1553.135009765625 1563.905029296875 1576.4659423828125 1586.85595703125 1596.8160400390625 1606.5169677734375 1614.237060546875 1621.4969482421875 1626.7879638671875 1631.508056640625 1634.748046875 1638.7989501953125 1643.1390380859375 1649.989013671875 1657.0889892578125 1665.300048828125 1673.68994140625 1681.260009765625 1688.23095703125 1695.990966796875 1703.3709716796875 1711.58203125 1719.3719482421875 1726.9820556640625 1734.373046875 1740.863037109375 1745.9530029296875 1749.384033203125 1751.4139404296875 1754.2540283203125 1756.4150390625 1758.5450439453125 1763.2249755859375 1768.676025390625 1770.6259765625 1772.2159423828125 1771.926025390625 1773.8470458984375 1775.5469970703125 1775.7869873046875 1776.7979736328125 1781.7979736328125 1788.427978515625 1792.779052734375 1799.93896484375 1805.3590087890625 1808.969970703125 1812.9000244140625 1814.6199951171875 1814.240966796875 1811.6209716796875 1807.8809814453125 1807.06201171875 1806.241943359375 1806.741943359375 1807.0030517578125 1806.552978515625 1806.501955125 1806.501955125 1806.501957125 1806.501959125 1806.501961125 1806.501963125 1807.7550048828125 -9999.0 -9999.0 -9999.0 -9999.0 -9999.0 -9999.0 -9999.0 -9999.0 -9999.0 -9999.0 -9999.0 -9999.0 -9999.0 -9999.0 -9999.0 -9999.0 -9999.0 -9999.0 -9999.0 -9999.0 -9999.0 -9999.0 -9999.0 -9999.0 -9999.0 -9999.0 -9999.0 -9999.0 -9999.0 -9999.0 -9999.0 -9999.0 -9999.0 -9999.0 -9999.0 -9999.0 -9999.0 -9999.0 -9999.0 -9999.0 -9999.0 -9999.0 -9999.0 -9999.0 -9999.0 -9999.0 -9999.0 -9999.0
-9999.0 -9999.0 -9999.0 -9999.0 -9999.0 -9999.0 -9999.0 -9999.0 -9999.0 -9999.0 -9999.0 -9999.0 -9999.0 -9999.0 -9999.0 -9999.0 -9999.0 -9999.0 -9999.0 -9999.0 -9999.0 -9999.0 -9999.0 -9999.0 -9999.0 -9999.0 -9999.0 -9999.0 -9999.0 -9999.0 -9999.0 -9999.0 -9999.0 -9999.0 -9999.0 -9999.0 -9999.0 -9999.0 -9999.0 -9999.0 -9999.0 -9999.0 -9999.0 -9999.0 -9999.0 1178.5059814453125 1177.43603515625 1176.2060546875 1178.45703125 1178.737060546875 1176.3570556640625 1173.718017578125 1173.968017578125 1172.8079833984375 1174.97900390625 1175.1490478515625 1175.8389892578125 1176.279052734375 1177.93994140625 1178.8499755859375 1186.449951171875 1195.260986328125 1198.240966796875 1200.8809814453125 1204.7120361328125 1208.1619873046875 1211.52197265625 1214.873046875 1218.79296875 1223.9730224609375 1228.14404296875 1232.7939453125 1238.35400390625 1243.655029296875 1249.5550537109375 1256.7950439453125 1261.3260498046875 1269.4560546875 1276.8360595703125 1283.2869873046875 1289.2469482421875 1295.366943359375 1301.7469482421875 1307.7779541015625 1313.14794921875 1320.18798828125 1324.72900390625 1329.8890380859375 1336.958984375 1343.93994140625 1355.1099853515625 1360.8399658203125 1369.791015625 1378.760986328125 1387.2509765625 1396.10205078125 1409.261962890625 1418.491943359375 1425.77294921875 1439.4229736328125 1449.4029541015625 1456.6639404296875 1464.5040283203125 1475.9539794921875 1486.553955078125 1505.5350341796875 1511.8050537109375 1533.875 1555.6259765625 1563.9959716796875 1571.8260498046875 1582.2769775390625 1593.7669677734375 1604.97705078125 1610.6180419921875 1616.7679443359375 1621.97802734375 1625.509033203125 1629.0589599609375 1633.7490234375 1639.75 1646.1099853515625 1652.4000244140625 1661.220947265625 1668.8509521484375 1676.031005859375 1682.7110595703125 1691.072021484375 1698.822021484375 1707.6619873046875 1715.02294921875 1723.2330322265625 1730.9730224609375 1737.06396484375 1742.833984375 1749.31396484375 1755.7449951171875 1760.0350341796875 1762.5550537109375 1765.4859619140625 1769.0260009765625 1774.3060302734375 1779.376953125 1779.406982421875 1779.447021484375 1780.488037109375 1782.508056640625 1783.0679931640625 1783.7679443359375 1788.93896484375 1792.678955078125 1799.279052734375 1804.6700439453125 1809.3599853515625 1814.4000244140625 1816.781005859375 1816.98095703125 1813.3909912109375 1810.3919677734375 1808.241943359375 1807.281982421875 1807.012939453125 1807.322998046875 1807.262939453125 1806.654052734375 1806.501957125 1806.501957125 1806.501957125 1806.501959125 1806.501961125 -9999.0 -9999.0 -9999.0 -9999.0 -9999.0 -9999.0 -9999.0 -9999.0 -9999.0 -9999.0 -9999.0 -9999.0 -9999.0 -9999.0 -9999.0 -9999.0 -9999.0 -9999.0 -9999.0 -9999.0 -9999.0 -9999.0 -9999.0 -9999.0 -9999.0 -9999.0 -9999.0 -9999.0 -9999.0 -9999.0 -9999.0 -9999.0 -9999.0 -9999.0 -9999.0 -9999.0 -9999.0 -9999.0 -9999.0 -9999.0 -9999.0 -9999.0 -9999.0 -9999.0 -9999.0 -9999.0 -9999.0 -9999.0 -9999.0 -9999.0
-9999.0 -9999.0 -9999.0 -9999.0 -9999.0 -9999.0 -9999.0 -9999.0 -9999.0 -9999.0 -9999.0 -9999.0 -9999.0 -9999.0 -9999.0 -9999.0 -9999.0 -9999.0 -9999.0 -9999.0 -9999.0 -9999.0 -9999.0 -9999.0 -9999.0 -9999.0 -9999.0 -9999.0 -9999.0 -9999.0 -9999.0 -9999.0 -9999.0 -9999.0 -9999.0 -9999.0 -9999.0 -9999.0 -9999.0 -9999.0 -9999.0 -9999.0 -9999.0 -9999.0 -9999.0 1178.0460205078125 1176.116943359375 1175.0870361328125 1176.487060546875 1176.758056640625 1172.6280517578125 1172.43798828125 1171.678955078125 1173.509033203125 1173.208984375 1173.9000244140625 1174.75 1177.969970703125 1177.510986328125 1181.6910400390625 1190.9210205078125 1194.842041015625 1198.092041015625 1201.011962890625 1204.1419677734375 1206.77294921875 1210.2330322265625 1214.1729736328125 1218.9840087890625 1222.85400390625 1226.9639892578125 1231.7049560546875 1237.4849853515625 1244.1650390625 1250.2559814453125 1255.0159912109375 1260.85595703125 1266.97705078125 1273.1669921875 1281.0570068359375 1288.68798828125 1294.5679931640625 1301.0980224609375 1307.76904296875 1313.948974609375 1320.3690185546875 1326.678955078125 1333.2099609375 1338.9000244140625 1346.6600341796875 1355.48095703125 1363.73095703125 1374.27099609375 1380.35205078125 1388.4620361328125 1396.3819580078125 1408.552978515625 1426.2330322265625 1433.2430419921875 1437.7840576171875 1456.6939697265625 1462.134033203125 1468.7249755859375 1476.4749755859375 1485.68505859375 1498.2359619140625 1510.7760009765625 1542.3060302734375 1555.656005859375 1563.2469482421875 1570.967041015625 1579.9169921875 1588.738037109375 1597.407958984375 1606.447998046875 1612.5789794921875 1616.7490234375 1620.0589599609375 1624.0999755859375 1629.219970703125 1635.300048828125 1640.9410400390625 1648.041015625 1655.0909423828125 1663.85205078125 1671.7919921875 1679.1719970703125 1687.2030029296875 1694.8929443359375 1702.77294921875 1710.4029541015625 1719.1739501953125 1727.2039794921875 1733.6939697265625 1740.2650146484375 1748.93505859375 1756.5450439453125 1763.426025390625 1768.8360595703125 1772.35595703125 1777.14697265625 1782.467041015625 1787.0069580078125 1787.1080322265625 1786.5880126953125 1787.2679443359375 1789.6490478515625 1790.5789794921875 1791.928955078125 1794.56005859375 1797.8900146484375 1803.260009765625 1809.949951171875 1814.3409423828125 1818.240966796875 1819.5810546875 1816.0419921875 1812.9820556640625 1810.9219970703125 1809.2530517578125 1808.2230224609375 1808.02294921875 1808.4339599609375 1807.7939453125 1807.2939453125 1806.64502153125 1806.501959125 1806.501959125 1806.501959125 1807.2159423828125 -9999.0 -9999.0 -9999.0 -9999.0 -9999.0 -9999.0 -9999.0 -9999.0 -9999.0 -9999.0 -9999.0 -9999.0 -9999.0 -9999.0 -9999.0 -9999.0 -9999.0 -9999.0 -9999.0 -9999.0 -9999.0 -9999.0 -9999.0 -9999.0 -9999.0 -9999.0 -9999.0 -9999.0 -9999.0 -9999.0 -9999.0 -9999.0 -9999.0 -9999.0 -9999.0 -9999.0 -9999.0 -9999.0 -9999.0 -9999.0 -9999.0 -9999.0 -9999.0 -9999.0 -9999.0 -9999.0 -9999.0 -9999.0 -9999.0 -9999.0
-9999.0 -9999.0 -9999.0 -9999.0 -9999.0 -9999.0 -9999.0 -9999.0 -9999.0 -9999.0 -9999.0 -9999.0 -9999.0 -9999.0 -9999.0 -9999.0 -9999.0 -9999.0 -9999.0 -9999.0 -9999.0 -9999.0 -9999.0 -9999.0 -9999.0 -9999.0 -9999.0 -9999.0 -9999.0 -9999.0 -9999.0 -9999.0 -9999.0 -9999.0 -9999.0 -9999.0 -9999.0 -9999.0 -9999.0 -9999.0 -9999.0 -9999.0 -9999.0 -9999.0 -9999.0 1177.616943359375 1177.20703125 1173.2080078125 1172.9580078125 1170.68798828125 1170.198974609375 1169.968994140625 1171.259033203125 1171.280029296875 1172.969970703125 1172.72998046875 1175.1009521484375 1175.6810302734375 1177.321044921875 1185.6920166015625 1190.362060546875 1193.4019775390625 1196.9129638671875 1199.6629638671875 1202.77294921875 1206.404052734375 1209.7440185546875 1214.0439453125 1217.6949462890625 1221.614990234375 1226.4549560546875 1232.4749755859375 1238.615966796875 1244.60595703125 1251.666015625 1259.5169677734375 1265.3070068359375 1270.68701171875 1276.0780029296875 1280.468017578125 1287.887939453125 1294.01904296875 1300.509033203125 1306.9189453125 1314.5899658203125 1320.300048828125 1327.0799560546875 1333.52099609375 1340.510986328125 1348.6409912109375 1356.4019775390625 1364.4620361328125 1373.4119873046875 1386.06201171875 1392.10302734375 1398.782958984375 1409.032958984375 1425.0240478515625 1442.06396484375 1446.823974609375 1465.9549560546875 1468.64501953125 1472.4949951171875 1479.916015625 1487.2659912109375 1495.39599609375 1509.427001953125 1540.97705078125 1557.6070556640625 1564.1180419921875 1572.177978515625 1580.6080322265625 1587.39794921875 1596.239013671875 1601.4990234375 1606.8389892578125 1610.780029296875 1614.8900146484375 1619.9100341796875 1625.9510498046875 1631.551025390625 1636.8809814453125 1642.2120361328125 1647.8919677734375 1655.4320068359375 1663.4930419921875 1672.6529541015625 1680.10302734375 1688.4840087890625 1698.4739990234375 1706.9739990234375 1714.9849853515625 1722.85498046875 1730.4150390625 1738.7550048828125 1747.43603515625 1756.0660400390625 1763.0260009765625 1770.2969970703125 1777.406982421875 1783.217041015625 1789.0980224609375 1793.2679443359375 1793.64794921875 1793.5789794921875 1794.47900390625 1796.8189697265625 1797.43994140625 1799.2099609375 1801.3399658203125 1804.9110107421875 1808.1510009765625 1814.6409912109375 1818.781005859375 1821.241943359375 1819.822021484375 1816.6920166015625 1813.54296875 1812.113037109375 1811.2130126953125 1810.573974609375 1810.404052734375 1810.39404296875 1808.9849853515625 1808.2950439453125 1807.7950439453125 1807.3060302734375 1806.89599809375 1806.9859619140625 -9999.0 -9999.0 -9999.0 -9999.0 -9999.0 -9999.0 -9999.0 -9999.0 -9999.0 -9999.0 -9999.0 -9999.0 -9999.0 -9999.0 -9999.0 -9999.0 -9999.0 -9999.0 -9999.0 -9999.0 -9999.0 -9999.0 -9999.0 -9999.0 -9999.0 -9999.0 -9999.0 -9999.0 -9999.0 -9999.0 -9999.0 -9999.0 -9999.0 -9999.0 -9999.0 -9999.0 -9999.0 -9999.0 -9999.0 -9999.0 -9999.0 -9999.0 -9999.0 -9999.0 -9999.0 -9999.0 -9999.0 -9999.0 -9999.0 -9999.0 -9999.0
-9999.0 -9999.0 -9999.0 -9999.0 -9999.0 -9999.0 -9999.0 -9999.0 -9999.0 -9999.0 -9999.0 -9999.0 -9999.0 -9999.0 -9999.0 -9999.0 -9999.0 -9999.0 -9999.0 -9999.0 -9999.0 -9999.0 -9999.0 -9999.0 -9999.0 -9999.0 -9999.0 -9999.0 -9999.0 -9999.0 -9999.0 -9999.0 -9999.0 -9999.0 -9999.0 -9999.0 -9999.0 -9999.0 -9999.0 -9999.0 -9999.0 -9999.0 -9999.0 -9999.0 -9999.0 -9999.0 1177.427978515625 1175.6190185546875 1170.6290283203125 1168.029052734375 1169.31005859375 1170.1700439453125 1171.77001953125 1172.1300048828125 1171.6810302734375 1174.1510009765625 1173.77099609375 1175.8919677734375 1178.741943359375 1182.261962890625 1188.4329833984375 1192.4329833984375 1195.873046875 1198.3740234375 1202.614013671875 1205.7540283203125 1208.864990234375 1213.155029296875 1217.375 1221.9560546875 1226.9759521484375 1233.2060546875 1239.7469482421875 1246.717041015625 1253.22705078125 1259.8070068359375 1267.0780029296875 1273.3780517578125 1279.2679443359375 1285.0489501953125 1289.47900390625 1294.6290283203125 1300.760009765625 1307.489990234375 1315.3199462890625 1322.801025390625 1329.3310546875 1335.3909912109375 1342.052001953125 1349.2919921875 1357.241943359375 1365.0830078125 1374.3330078125 1390.7430419921875 1397.654052734375 1404.093994140625 1416.9840087890625 1428.0040283203125 1449.905029296875 1457.6949462890625 1472.3050537109375 1476.635986328125 1477.916015625 1484.2559814453125 1491.3170166015625 1501.47705078125 1514.1070556640625 1534.5780029296875 1552.488037109375 1562.177978515625 1568.22900390625 1576.218994140625 1584.47900390625 1589.699951171875 1595.0999755859375 1600.68994140625 1605.5899658203125 1611.0009765625 1617.4010009765625 1623.301025390625 1627.9420166015625 1632.7020263671875 1637.4820556640625 1644.282958984375 1650.9129638671875 1659.4830322265625 1668.56396484375 1677.2640380859375 1686.803955078125 1694.2249755859375 1701.9749755859375 1709.125 1716.9759521484375 1723.156005859375 1734.1259765625 1743.20703125 1750.616943359375 1758.8270263671875 1767.47705078125 1775.387939453125 1782.887939453125 1788.9580078125 1795.3489990234375 1798.029052734375 1799.2889404296875 1801.9000244140625 1803.8699951171875 1804.47998046875 1805.6710205078125 1808.6209716796875 1812.4610595703125 1815.33203125 1818.77197265625 1822.112060546875 1822.9930419921875 1820.9129638671875 1818.02294921875 1815.4730224609375 1814.5040283203125 1813.4940185546875 1812.343994140625 1811.635009765625 1811.074951171875 1810.5150146484375 1809.885986328125 1809.3360595703125 1808.7559814453125 -9999.0 -9999.0 -9999.0 -9999.0 -9999.0 -9999.0 -9999.0 -9999.0 -9999.0 -9999.0 -9999.0 -9999.0 -9999.0 -9999.0 -9999.0 -9999.0 -9999.0 -9999.0 -9999.0 -9999.0 -9999.0 -9999.0 -9999.0 -9999.0 -9999.0 -9999.0 -9999.0 -9999.0 -9999.0 -9999.0 -9999.0 -9999.0 -9999.0 -9999.0 -9999.0 -9999.0 -9999.0 -9999.0 -9999.0 -9999.0 -9999.0 -9999.0 -9999.0 -9999.0 -9999.0 -9999.0 -9999.0 -9999.0 -9999.0 -9999.0 -9999.0 -9999.0 -9999.0
-9999.0 -9999.0 -9999.0 -9999.0 -9999.0 -9999.0 -9999.0 -9999.0 -9999.0 -9999.0 -9999.0 -9999.0 -9999.0 -9999.0 -9999.0 -9999.0 -9999.0 -9999.0 -9999.0 -9999.0 -9999.0 -9999.0 -9999.0 -9999.0 -9999.0 -9999.0 -9999.0 -9999.0 -9999.0 -9999.0 -9999.0 -9999.0 -9999.0 -9999.0 -9999.0 -9999.0 -9999.0 -9999.0 -9999.0 -9999.0 -9999.0 -9999.0 -9999.0 -9999.0 -9999.0 -9999.0 1177.3590087890625 1174.489013671875 1168.4599609375 1167.4000244140625 1168.699951171875 1170.9410400390625 1170.781005859375 1170.781005859375 1172.1219482421875 1172.52197265625 1171.33203125 1176.032958984375 1178.8929443359375 1180.56298828125 1186.9429931640625 1191.4840087890625 1194.9940185546875 1197.6639404296875 1201.885009765625 1204.625 1208.4549560546875 1212.4959716796875 1217.426025390625 1222.8759765625 1228.1070556640625 1233.717041015625 1239.626953125 1246.41796875 1253.7979736328125 1259.3079833984375 1266.8590087890625 1273.8790283203125 1280.3289794921875 1286.1190185546875 1290.760009765625 1295.300048828125 1300.780029296875 1308.301025390625 1316.0009765625 1323.7010498046875 1331.6419677734375 1338.4620361328125 1344.9720458984375 1352.322998046875 1359.613037109375 1367.8330078125 1377.10400390625 1392.06396484375 1401.343994140625 1408.675048828125 1419.89501953125 1435.2049560546875 1454.9759521484375 1461.2259521484375 1481.60595703125 1486.0660400390625 1486.5169677734375 1491.8170166015625 1502.2669677734375 1513.248046875 1516.0479736328125 1534.947998046875 1545.0489501953125 1554.5489501953125 1562.2490234375 1570.3800048828125 1576.9100341796875 1584.3900146484375 1591.010986328125 1596.9610595703125 1603.051025390625 1609.6519775390625 1616.4620361328125 1619.7020263671875 1622.612060546875 1627.5830078125 1634.343017578125 1640.4329833984375 1645.093994140625 1652.1639404296875 1661.864013671875 1668.385009765625 1676.9649658203125 1684.7650146484375 1692.5860595703125 1700.7760009765625 1708.7159423828125 1717.70703125 1728.717041015625 1737.636962890625 1746.7779541015625 1754.66796875 1763.97802734375 1770.9189453125 1778.01904296875 1784.218994140625 1791.208984375 1796.97998046875 1801.9200439453125 1807.260009765625 1810.220947265625 1810.791015625 1812.7110595703125 1815.1619873046875 1817.741943359375 1820.592041015625 1823.7130126953125 1824.6929931640625 1824.782958984375 1822.154052734375 1820.2740478515625 1818.4339599609375 1816.60498046875 1814.864990234375 1813.9150390625 1812.6650390625 1812.14599609375 1811.406005859375 1811.2559814453125 -9999.0 -9999.0 -9999.0 -9999.0 -9999.0 -9999.0 -9999.0 -9999.0 -9999.0 -9999.0 -9999.0 -9999.0 -9999.0 -9999.0 -9999.0 -9999.0 -9999.0 -9999.0 -9999.0 -9999.0 -9999.0 -9999.0 -9999.0 -9999.0 -9999.0 -9999.0 -9999.0 -9999.0 -9999.0 -9999.0 -9999.0 -9999.0 -9999.0 -9999.0 -9999.0 -9999.0 -9999.0 -9999.0 -9999.0 -9999.0 -9999.0 -9999.0 -9999.0 -9999.0 -9999.0 -9999.0 -9999.0 -9999.0 -9999.0 -9999.0 -9999.0 -9999.0 -9999.0 -9999.0 -9999.0
-9999.0 -9999.0 -9999.0 -9999.0 -9999.0 -9999.0 -9999.0 -9999.0 -9999.0 -9999.0 -9999.0 -9999.0 -9999.0 -9999.0 -9999.0 -9999.0 -9999.0 -9999.0 -9999.0 -9999.0 -9999.0 -9999.0 -9999.0 -9999.0 -9999.0 -9999.0 -9999.0 -9999.0 -9999.0 -9999.0 -9999.0 -9999.0 -9999.0 -9999.0 -9999.0 -9999.0 -9999.0 -9999.0 -9999.0 -9999.0 -9999.0 -9999.0 -9999.0 -9999.0 -9999.0 -9999.0 1177.4000244140625 1171.4599609375 1166.1199951171875 1166.6309814453125 1168.791015625 1168.4410400390625 1169.0419921875 1171.06201171875 1172.9019775390625 1170.2130126953125 1173.6429443359375 1176.04296875 1178.7840576171875 1180.4139404296875 1185.843994140625 1190.9549560546875 1194.2650146484375 1197.0350341796875 1200.18505859375 1203.595947265625 1207.7259521484375 1212.345947265625 1217.20703125 1222.70703125 1229.18701171875 1234.5479736328125 1241.0880126953125 1247.927978515625 1255.259033203125 1260.928955078125 1266.509033203125 1273.9300537109375 1280.219970703125 1286.6099853515625 1292.240966796875 1298.1610107421875 1303.291015625 1311.781982421875 1318.1719970703125 1325.52197265625 1333.0419921875 1340.2330322265625 1346.9530029296875 1354.1929931640625 1361.5040283203125 1369.6839599609375 1377.1839599609375 1391.0050048828125 1403.885009765625 1412.7550048828125 1423.446044921875 1444.676025390625 1457.2359619140625 1474.237060546875 1482.45703125 1496.68701171875 1495.8580322265625 1501.18798828125 1515.0179443359375 1523.5279541015625 1530.6390380859375 1536.3289794921875 1543.968994140625 1553.5699462890625 1561.760009765625 1567.8800048828125 1575.240966796875 1582.1810302734375 1590.5009765625 1596.4019775390625 1602.3719482421875 1608.6820068359375 1612.5830078125 1613.6929931640625 1617.4129638671875 1622.10400390625 1628.31396484375 1634.343994140625 1638.573974609375 1645.135009765625 1651.5350341796875 1658.35498046875 1666.2159423828125 1674.2459716796875 1684.5059814453125 1698.0469970703125 1711.0469970703125 1719.136962890625 1727.6180419921875 1737.22802734375 1743.8179931640625 1751.5789794921875 1758.4990234375 1765.3790283203125 1772.93994140625 1779.5400390625 1786.0899658203125 1792.6500244140625 1798.051025390625 1803.1710205078125 1807.6409912109375 1813.02197265625 1818.4820556640625 1823.3719482421875 1824.31298828125 1825.9530029296875 1826.9229736328125 1827.134033203125 1825.9339599609375 1824.4139404296875 1822.2550048828125 -9999.0 -9999.0 -9999.0 -9999.0 -9999.0 -9999.0 -9999.0 -9999.0 -9999.0 -9999.0 -9999.0 -9999.0 -9999.0 -9999.0 -9999.0 -9999.0 -9999.0 -9999.0 -9999.0 -9999.0 -9999.0 -9999.0 -9999.0 -9999.0 -9999.0 -9999.0 -9999.0 -9999.0 -9999.0 -9999.0 -9999.0 -9999.0 -9999.0 -9999.0 -9999.0 -9999.0 -9999.0 -9999.0 -9999.0 -9999.0 -9999.0 -9999.0 -9999.0 -9999.0 -9999.0 -9999.0 -9999.0 -9999.0 -9999.0 -9999.0 -9999.0 -9999.0 -9999.0 -9999.0 -9999.0 -9999.0 -9999.0 -9999.0 -9999.0 -9999.0 -9999.0 -9999.0 -9999.0
-9999.0 -9999.0 -9999.0 -9999.0 -9999.0 -9999.0 -9999.0 -9999.0 -9999.0 -9999.0 -9999.0 -9999.0 -9999.0 -9999.0 -9999.0 -9999.0 -9999.0 -9999.0 -9999.0 -9999.0 -9999.0 -9999.0 -9999.0 -9999.0 -9999.0 -9999.0 -9999.0 -9999.0 -9999.0 -9999.0 -9999.0 -9999.0 -9999.0 -9999.0 -9999.0 -9999.0 -9999.0 -9999.0 -9999.0 -9999.0 -9999.0 -9999.0 -9999.0 -9999.0 -9999.0 1176.9000244140625 1177.4510498046875 1168.06103515625 1164.7010498046875 1166.490966796875 1167.33203125 1166.1619873046875 1167.1419677734375 1169.052978515625 1168.9429931640625 1170.9129638671875 1173.3740234375 1175.5340576171875 1178.5140380859375 1181.0450439453125 1187.375 1192.5450439453125 1194.2860107421875 1196.5860595703125 1200.656005859375 1204.43701171875 1208.177001953125 1212.2869873046875 1217.0980224609375 1223.7080078125 1229.7679443359375 1235.947998046875 1242.0589599609375 1249.468994140625 1256.9990234375 1262.3199462890625 1269.1099853515625 1275.1099853515625 1281.760986328125 1288.1209716796875 1294.31103515625 1300.3719482421875 1306.6920166015625 1313.531982421875 1320.6829833984375 1327.9830322265625 1334.5830078125 1340.904052734375 1347.6839599609375 1354.9239501953125 1362.7039794921875 1369.905029296875 1378.0550537109375 1391.594970703125 1405.0860595703125 1417.35595703125 1426.3060302734375 1444.72705078125 1461.14697265625 1478.7669677734375 1488.0780029296875 1504.8380126953125 1505.18798828125 1507.8590087890625 1524.968994140625 1531.6689453125 1536.8199462890625 1542.6600341796875 1547.3499755859375 1554.449951171875 1568.73095703125 1572.720947265625 1579.3310546875 1584.81201171875 1590.08203125 1596.011962890625 1601.072998046875 1604.4730224609375 1605.9129638671875 1607.803955078125 1612.154052734375 1617.60400390625 1622.655029296875 1627.824951171875 1633.9449462890625 1639.916015625 1645.865966796875 1654.0660400390625 1662.8060302734375 1673.5169677734375 1683.22705078125 1698.376953125 1710.508056640625 1717.8480224609375 1725.43798828125 1731.928955078125 1738.9189453125 1746.47900390625 1754.0400390625 1760.1300048828125 1767.22998046875 1774.27099609375 1780.5909423828125 1787.1409912109375 1792.08203125 1796.261962890625 1801.52197265625 1807.58203125 1814.302978515625 1819.7530517578125 1823.9530029296875 1827.384033203125 1829.843994140625 -9999.0 -9999.0 -9999.0 -9999.0 -9999.0 -9999.0 -9999.0 -9999.0 -9999.0 -9999.0 -9999.0 -9999.0 -9999.0 -9999.0 -9999.0 -9999.0 -9999.0 -9999.0 -9999.0 -9999.0 -9999.0 -9999.0 -9999.0 -9999.0 -9999.0 -9999.0 -9999.0 -9999.0 -9999.0 -9999.0 -9999.0 -9999.0 -9999.0 -9999.0 -9999.0 -9999.0 -9999.0 -9999.0 -9999.0 -9999.0 -9999.0 -9999.0 -9999.0 -9999.0 -9999.0 -9999.0 -9999.0 -9999.0 -9999.0 -9999.0 -9999.0 -9999.0 -9999.0 -9999.0 -9999.0 -9999.0 -9999.0 -9999.0 -9999.0 -9999.0 -9999.0 -9999.0 -9999.0 -9999.0 -9999.0 -9999.0 -9999.0
-9999.0 -9999.0 -9999.0 -9999.0 -9999.0 -9999.0 -9999.0 -9999.0 -9999.0 -9999.0 -9999.0 -9999.0 -9999.0 -9999.0 -9999.0 -9999.0 -9999.0 -9999.0 -9999.0 -9999.0 -9999.0 -9999.0 -9999.0 -9999.0 -9999.0 -9999.0 -9999.0 -9999.0 -9999.0 -9999.0 -9999.0 -9999.0 -9999.0 -9999.0 -9999.0 -9999.0 -9999.0 -9999.0 -9999.0 -9999.0 -9999.0 -9999.0 -9999.0 -9999.0 -9999.0 1177.4410400390625 1175.48095703125 1165.8719482421875 1164.3719482421875 1165.4119873046875 1165.56298828125 1164.093017578125 1165.52294921875 1166.5830078125 1171.2840576171875 1171.9840087890625 1173.2540283203125 1175.7249755859375 1178.8050537109375 1182.56494140625 1189.2359619140625 1192.926025390625 1196.2259521484375 1198.717041015625 1202.376953125 1206.0269775390625 1209.947998046875 1214.14794921875 1218.0279541015625 1223.948974609375 1230.3890380859375 1236.779052734375 1243.219970703125 1249.699951171875 1255.989990234375 1263.2099609375 1270.3609619140625 1276.291015625 1283.281005859375 1290.031982421875 1296.302001953125 1302.7919921875 1309.0030517578125 1315.6829833984375 1321.6929931640625 1328.7740478515625 1336.114013671875 1342.64404296875 1350.0150146484375 1356.89501953125 1364.2750244140625 1371.5360107421875 1379.135986328125 1393.5059814453125 1406.14599609375 1419.3170166015625 1433.0670166015625 1448.626953125 1461.258056640625 1480.5679931640625 1492.41796875 1503.8890380859375 1513.029052734375 1514.3790283203125 1518.219970703125 1519.949951171875 1525.280029296875 1531.281005859375 1543.1710205078125 1552.3709716796875 1565.6719970703125 1576.4019775390625 1580.4320068359375 1584.822021484375 1589.29296875 1593.113037109375 1596.2230224609375 1599.0040283203125 1599.654052734375 1602.35400390625 1607.7650146484375 1612.2550048828125 1617.18505859375 1622.9560546875 1628.946044921875 1634.8160400390625 1641.6669921875 1651.0570068359375 1660.39697265625 1670.41796875 1683.14794921875 1697.137939453125 1706.218017578125 1713.8590087890625 1719.5589599609375 1725.93896484375 1732.4599609375 1738.97998046875 1746.25 1753.06103515625 1760.3310546875 1767.6810302734375 1773.501953125 1778.3719482421875 1783.6719970703125 1789.6529541015625 1795.873046875 1801.633056640625 1808.802978515625 1814.3740234375 1817.7139892578125 1823.2540283203125 -9999.0 -9999.0 -9999.0 -9999.0 -9999.0 -9999.0 -9999.0 -9999.0 -9999.0 -9999.0 -9999.0 -9999.0 -9999.0 -9999.0 -9999.0 -9999.0 -9999.0 -9999.0 -9999.0 -9999.0 -9999.0 -9999.0 -9999.0 -9999.0 -9999.0 -9999.0 -9999.0 -9999.0 -9999.0 -9999.0 -9999.0 -9999.0 -9999.0 -9999.0 -9999.0 -9999.0 -9999.0 -9999.0 -9999.0 -9999.0 -9999.0 -9999.0 -9999.0 -9999.0 -9999.0 -9999.0 -9999.0 -9999.0 -9999.0 -9999.0 -9999.0 -9999.0 -9999.0 -9999.0 -9999.0 -9999.0 -9999.0 -9999.0 -9999.0 -9999.0 -9999.0 -9999.0 -9999.0 -9999.0 -9999.0 -9999.0 -9999.0 -9999.0
-9999.0 -9999.0 -9999.0 -9999.0 -9999.0 -9999.0 -9999.0 -9999.0 -9999.0 -9999.0 -9999.0 -9999.0 -9999.0 -9999.0 -9999.0 -9999.0 -9999.0 -9999.0 -9999.0 -9999.0 -9999.0 -9999.0 -9999.0 -9999.0 -9999.0 -9999.0 -9999.0 -9999.0 -9999.0 -9999.0 -9999.0 -9999.0 -9999.0 -9999.0 -9999.0 -9999.0 -9999.0 -9999.0 -9999.0 -9999.0 -9999.0 -9999.0 -9999.0 -9999.0 -9999.0 1178.031982421875 1173.35205078125 1165.052001953125 1163.843017578125 1164.843017578125 1163.032958984375 1163.864013671875 1166.4139404296875 1169.843994140625 1170.425048828125 1171.14501953125 1172.2349853515625 1176.196044921875 1181.0159912109375 1186.39599609375 1189.9859619140625 1192.6070556640625 1196.7569580078125 1200.3170166015625 1203.677978515625 1207.64794921875 1211.2979736328125 1215.8890380859375 1220.5589599609375 1225.029052734375 1231.1199951171875 1237.4100341796875 1243.219970703125 1249.4610595703125 1254.9510498046875 1263.3509521484375 1269.5419921875 1276.0419921875 1283.001953125 1290.112060546875 1297.123046875 1303.572998046875 1310.4730224609375 1317.9739990234375 1324.2340087890625 1330.9539794921875 1338.2349853515625 1344.9649658203125 1352.10498046875 1358.7960205078125 1366.166015625 1373.926025390625 1381.467041015625 1391.0970458984375 1403.45703125 1418.97802734375 1435.1080322265625 1452.387939453125 1468.41796875 1482.01904296875 1490.9990234375 1496.279052734375 1504.43994140625 1511.1300048828125 1510.31005859375 1512.6910400390625 1517.7010498046875 1524.781005859375 1533.4219970703125 1545.77197265625 1556.2320556640625 1564.6429443359375 1577.282958984375 1581.2230224609375 1584.4239501953125 1587.4139404296875 1589.904052734375 1592.31396484375 1593.594970703125 1597.56494140625 1601.5550537109375 1606.5159912109375 1612.345947265625 1617.8260498046875 1624.47705078125 1629.3570556640625 1635.89697265625 1646.8380126953125 1655.947998046875 1669.6280517578125 1681.18896484375 1692.8389892578125 1699.8890380859375 1705.8990478515625 1710.800048828125 1718.0400390625 1724.4599609375 1732.051025390625 1739.4610595703125 1746.531005859375 1753.342041015625 1759.2020263671875 1764.991943359375 1770.843017578125 1776.7530517578125 1783.0030517578125 1788.553955078125 1793.60400390625 1799.9239501953125 1806.7550048828125 1813.135009765625 1818.7750244140625 -9999.0 -9999.0 -9999.0 -9999.0 -9999.0 -9999.0 -9999.0 -9999.0 -9999.0 -9999.0 -9999.0 -9999.0 -9999.0 -9999.0 -9999.0 -9999.0 -9999.0 -9999.0 -9999.0 -9999.0 -9999.0 -9999.0 -9999.0 -9999.0 -9999.0 -9999.0 -9999.0 -9999.0 -9999.0 -9999.0 -9999.0 -9999.0 -9999.0 -9999.0 -9999.0 -9999.0 -9999.0 -9999.0 -9999.0 -9999.0 -9999.0 -9999.0 -9999.0 -9999.0 -9999.0 -9999.0 -9999.0 -9999.0 -9999.0 -9999.0 -9999.0 -9999.0 -9999.0 -9999.0 -9999.0 -9999.0 -9999.0 -9999.0 -9999.0 -9999.0 -9999.0 -9999.0 -9999.0 -9999.0 -9999.0 -9999.0 -9999.0 -9999.0
-9999.0 -9999.0 -9999.0 -9999.0 -9999.0 -9999.0 -9999.0 -9999.0 -9999.0 -9999.0 -9999.0 -9999.0 -9999.0 -9999.0 -9999.0 -9999.0 -9999.0 -9999.0 -9999.0 -9999.0 -9999.0 -9999.0 -9999.0 -9999.0 -9999.0 -9999.0 -9999.0 -9999.0 -9999.0 -9999.0 -9999.0 -9999.0 -9999.0 -9999.0 -9999.0 -9999.0 -9999.0 -9999.0 -9999.0 -9999.0 -9999.0 -9999.0 -9999.0 -9999.0 -9999.0 1177.4019775390625 1170.633056640625 1164.1629638671875 1162.802978515625 1162.9739990234375 1161.7840576171875 1164.2840576171875 1165.344970703125 1169.175048828125 1169.8349609375 1170.406005859375 1172.2159423828125 1176.64599609375 1182.626953125 1186.177001953125 1189.3170166015625 1191.637939453125 1196.66796875 1200.3480224609375 1203.8280029296875 1207.928955078125 1212.458984375 1216.26904296875 1220.7099609375 1225.3299560546875 1230.6700439453125 1235.720947265625 1242.1109619140625 1249.031005859375 1253.9720458984375 1262.2919921875 1269.031982421875 1274.9730224609375 1281.4229736328125 1288.0030517578125 1294.2840576171875 1301.303955078125 1309.583984375 1317.1240234375 1325.3349609375 1332.9449462890625 1340.0150146484375 1347.3060302734375 1354.1259765625 1360.9659423828125 1368.0770263671875 1376.3570556640625 1383.93701171875 1391.5379638671875 1399.5479736328125 1412.66796875 1422.7490234375 1446.489013671875 1463.1290283203125 1477.52001953125 1474.8299560546875 1482.6400146484375 1495.72998046875 1501.02099609375 1501.7010498046875 1506.6109619140625 1514.251953125 1523.0419921875 1532.241943359375 1541.04296875 1550.1929931640625 1559.383056640625 1571.2939453125 1577.06396484375 1578.7239990234375 1581.1949462890625 1584.39501953125 1585.9649658203125 1588.14599609375 1591.9859619140625 1596.176025390625 1601.2659912109375 1608.0369873046875 1613.0970458984375 1618.217041015625 1624.8079833984375 1632.43798828125 1641.258056640625 1649.4090576171875 1660.0689697265625 1667.8189697265625 1681.6700439453125 1689.5699462890625 1694.8800048828125 1703.801025390625 1711.56103515625 1719.06103515625 1726.81103515625 1733.8919677734375 1740.4420166015625 1745.8719482421875 1752.2530517578125 1757.822998046875 1763.613037109375 1769.6240234375 1776.7139892578125 1780.8740234375 1786.93505859375 1793.3050537109375 1801.5250244140625 1809.1259765625 1816.10595703125 -9999.0 -9999.0 -9999.0 -9999.0 -9999.0 -9999.0 -9999.0 -9999.0 -9999.0 -9999.0 -9999.0 -9999.0 -9999.0 -9999.0 -9999.0 -9999.0 -9999.0 -9999.0 -9999.0 -9999.0 -9999.0 -9999.0 -9999.0 -9999.0 -9999.0 -9999.0 -9999.0 -9999.0 -9999.0 -9999.0 -9999.0 -9999.0 -9999.0 -9999.0 -9999.0 -9999.0 -9999.0 -9999.0 -9999.0 -9999.0 -9999.0 -9999.0 -9999.0 -9999.0 -9999.0 -9999.0 -9999.0 -9999.0 -9999.0 -9999.0 -9999.0 -9999.0 -9999.0 -9999.0 -9999.0 -9999.0 -9999.0 -9999.0 -9999.0 -9999.0 -9999.0 -9999.0 -9999.0 -9999.0 -9999.0 -9999.0 -9999.0 -9999.0
-9999.0 -9999.0 -9999.0 -9999.0 -9999.0 -9999.0 -9999.0 -9999.0 -9999.0 -9999.0 -9999.0 -9999.0 -9999.0 -9999.0 -9999.0 -9999.0 -9999.0 -9999.0 -9999.0 -9999.0 -9999.0 -9999.0 -9999.0 -9999.0 -9999.0 -9999.0 -9999.0 -9999.0 -9999.0 -9999.0 -9999.0 -9999.0 -9999.0 -9999.0 -9999.0 -9999.0 -9999.0 -9999.0 -9999.0 -9999.0 -9999.0 -9999.0 -9999.0 -9999.0 -9999.0 1177.0830078125 1168.333984375 1162.14404296875 1161.35400390625 1162.2650146484375 1160.5250244140625 1162.3050537109375 1166.885009765625 1168.676025390625 1168.365966796875 1169.7960205078125 1171.8370361328125 1178.386962890625 1182.626953125 1185.248046875 1189.0579833984375 1191.43798828125 1195.8590087890625 1199.3790283203125 1203.0989990234375 1207.6099853515625 1211.469970703125 1216.4200439453125 1220.7010498046875 1226.2110595703125 1231.531005859375 1237.3809814453125 1242.8919677734375 1249.52197265625 1254.9420166015625 1262.0830078125 1267.863037109375 1273.5830078125 1280.4639892578125 1287.6240234375 1295.073974609375 1302.0150146484375 1309.094970703125 1316.9449462890625 1325.5460205078125 1332.7359619140625 1340.2459716796875 1347.5159912109375 1354.136962890625 1361.5169677734375 1368.4169921875 1376.1180419921875 1382.8179931640625 1390.907958984375 1399.6090087890625 1408.8990478515625 1422.2490234375 1435.72998046875 1454.4300537109375 1466.3800048828125 1461.52099609375 1473.6409912109375 1485.8709716796875 1492.8819580078125 1495.4820556640625 1501.52197265625 1514.031982421875 1523.3929443359375 1532.02294921875 1539.1829833984375 1549.3740234375 1558.553955078125 1567.81396484375 1570.31494140625 1571.8349609375 1574.56494140625 1578.5660400390625 1579.4959716796875 1582.3260498046875 1586.376953125 1591.1669921875 1596.7469482421875 1601.717041015625 1606.8780517578125 1613.008056640625 1620.68798828125 1630.1190185546875 1637.739013671875 1644.97900390625 1653.699951171875 1660.5799560546875 1669.9300537109375 1681.6710205078125 1690.220947265625 1699.2110595703125 1708.2220458984375 1714.8919677734375 1723.1820068359375 1727.552978515625 1733.5830078125 1739.9029541015625 1744.552978515625 1748.9539794921875 1754.9739990234375 1761.64404296875 1768.56494140625 1775.875 1783.655029296875 1791.2760009765625 1799.9759521484375 1807.5059814453125 -9999.0 -9999.0 -9999.0 -9999.0 -9999.0 -9999.0 -9999.0 -9999.0 -9999.0 -9999.0 -9999.0 -9999.0 -9999.0 -9999.0 -9999.0 -9999.0 -9999.0 -9999.0 -9999.0 -9999.0 -9999.0 -9999.0 -9999.0 -9999.0 -9999.0 -9999.0 -9999.0 -9999.0 -9999.0 -9999.0 -9999.0 -9999.0 -9999.0 -9999.0 -9999.0 -9999.0 -9999.0 -9999.0 -9999.0 -9999.0 -9999.0 -9999.0 -9999.0 -9999.0 -9999.0 -9999.0 -9999.0 -9999.0 -9999.0 -9999.0 -9999.0 -9999.0 -9999.0 -9999.0 -9999.0 -9999.0 -9999.0 -9999.0 -9999.0 -9999.0 -9999.0 -9999.0 -9999.0 -9999.0 -9999.0 -9999.0 -9999.0 -9999.0 -9999.0
-9999.0 -9999.0 -9999.0 -9999.0 -9999.0 -9999.0 -9999.0 -9999.0 -9999.0 -9999.0 -9999.0 -9999.0 -9999.0 -9999.0 -9999.0 -9999.0 -9999.0 -9999.0 -9999.0 -9999.0 -9999.0 -9999.0 -9999.0 -9999.0 -9999.0 -9999.0 -9999.0 -9999.0 -9999.0 -9999.0 -9999.0 -9999.0 -9999.0 -9999.0 -9999.0 -9999.0 -9999.0 -9999.0 -9999.0 -9999.0 -9999.0 -9999.0 -9999.0 -9999.0 1177.56396484375 1174.5140380859375 1165.56396484375 1160.4549560546875 1159.6650390625 1159.4849853515625 1159.5059814453125 1162.43603515625 1167.0560302734375 1166.947021484375 1166.7569580078125 1168.717041015625 1171.9169921875 1179.68798828125 1183.3780517578125 1185.5179443359375 1189.009033203125 1191.8189697265625 1195.5689697265625 1199.27001953125 1202.8499755859375 1206.52001953125 1210.760986328125 1215.73095703125 1220.98095703125 1226.6319580078125 1232.2120361328125 1238.4320068359375 1244.4429931640625 1251.113037109375 1256.9429931640625 1263.302978515625 1269.6240234375 1275.833984375 1282.64404296875 1289.074951171875 1296.2049560546875 1303.7850341796875 1311.385986328125 1319.0860595703125 1327.345947265625 1334.7469482421875 1341.6669921875 1347.5970458984375 1353.9580078125 1360.3079833984375 1366.0980224609375 1371.197998046875 1376.7989501953125 1384.8389892578125 1392.009033203125 1404.0699462890625 1421.52001953125 1432.1099853515625 1435.5909423828125 1443.23095703125 1450.2010498046875 1460.77197265625 1477.572021484375 1485.4620361328125 1489.012939453125 1495.282958984375 1513.072998046875 1517.114013671875 1531.2640380859375 1540.8740234375 1546.7840576171875 1552.3050537109375 1561.7249755859375 1560.93505859375 1563.6259765625 1568.93603515625 1571.2760009765625 1571.3470458984375 1574.0770263671875 1580.3570556640625 1585.927978515625 1590.7679443359375 1595.5679931640625 1601.3590087890625 1608.47900390625 1615.279052734375 1624.428955078125 1633.0899658203125 1640.3699951171875 1646.280029296875 1651.8909912109375 1659.291015625 1668.56103515625 1679.741943359375 1686.862060546875 1694.112060546875 1706.79296875 1712.7530517578125 1721.06298828125 1728.1739501953125 1732.5140380859375 1736.2540283203125 1742.6639404296875 1749.5350341796875 1757.2550048828125 1766.9549560546875 1776.3060302734375 1783.5260009765625 1791.135986328125 1798.68701171875 -9999.0 -9999.0 -9999.0 -9999.0 -9999.0 -9999.0 -9999.0 -9999.0 -9999.0 -9999.0 -9999.0 -9999.0 -9999.0 -9999.0 -9999.0 -9999.0 -9999.0 -9999.0 -9999.0 -9999.0 -9999.0 -9999.0 -9999.0 -9999.0 -9999.0 -9999.0 -9999.0 -9999.0 -9999.0 -9999.0 -9999.0 -9999.0 -9999.0 -9999.0 -9999.0 -9999.0 -9999.0 -9999.0 -9999.0 -9999.0 -9999.0 -9999.0 -9999.0 -9999.0 -9999.0 -9999.0 -9999.0 -9999.0 -9999.0 -9999.0 -9999.0 -9999.0 -9999.0 -9999.0 -9999.0 -9999.0 -9999.0 -9999.0 -9999.0 -9999.0 -9999.0 -9999.0 -9999.0 -9999.0 -9999.0 -9999.0 -9999.0 -9999.0 -9999.0 -9999.0
-9999.0 -9999.0 -9999.0 -9999.0 -9999.0 -9999.0 -9999.0 -9999.0 -9999.0 -9999.0 -9999.0 -9999.0 -9999.0 -9999.0 -9999.0 -9999.0 -9999.0 -9999.0 -9999.0 -9999.0 -9999.0 -9999.0 -9999.0 -9999.0 -9999.0 -9999.0 -9999.0 -9999.0 -9999.0 -9999.0 -9999.0 -9999.0 -9999.0 -9999.0 -9999.0 -9999.0 -9999.0 -9999.0 -9999.0 -9999.0 -9999.0 -9999.0 -9999.0 -9999.0 1177.0240478515625 1170.2049560546875 1163.35498046875 1158.885009765625 1158.85595703125 1157.5360107421875 1158.64599609375 1164.177001953125 1165.5269775390625 1165.447021484375 1166.5379638671875 1171.447998046875 1175.8179931640625 1180.708984375 1183.3489990234375 1186.47900390625 1188.239013671875 1192.5 1195.739990234375 1199.510009765625 1203.4210205078125 1207.02099609375 1211.23095703125 1215.781982421875 1221.2120361328125 1226.501953125 1232.383056640625 1239.093017578125 1244.7030029296875 1250.3740234375 1258.154052734375 1264.5439453125 1271.114990234375 1277.655029296875 1284.1949462890625 1291.405029296875 1298.7159423828125 1305.426025390625 1312.8360595703125 1320.22705078125 1328.1070556640625 1334.70703125 1341.177978515625 1347.3380126953125 1350.3280029296875 1354.0589599609375 1359.5489501953125 1365.6689453125 1372.9599609375 1380.280029296875 1387.3499755859375 1394.5999755859375 1414.23095703125 1414.301025390625 1419.281005859375 1432.4720458984375 1443.241943359375 1454.1920166015625 1470.6729736328125 1477.532958984375 1482.9129638671875 1491.0040283203125 1498.2840576171875 1504.9739990234375 1526.0150146484375 1532.175048828125 1533.2049560546875 1532.925048828125 1535.9659423828125 1543.2159423828125 1557.5260009765625 1561.866943359375 1561.987060546875 1564.376953125 1568.0679931640625 1575.0579833984375 1580.91796875 1585.68896484375 1591.489013671875 1596.8289794921875 1603.969970703125 1611.4000244140625 1618.4300537109375 1627.77099609375 1634.4410400390625 1640.1610107421875 1646.8909912109375 1653.4520263671875 1661.3919677734375 1668.4320068359375 1675.79296875 1683.85302734375 1693.7330322265625 1700.81396484375 1711.10400390625 1718.9840087890625 1724.885009765625 1731.9449462890625 1739.68505859375 1748.365966796875 1758.2659912109375 1767.946044921875 1776.7060546875 1782.126953125 1788.89697265625 1795.126953125 -9999.0 -9999.0 -9999.0 -9999.0 -9999.0 -9999.0 -9999.0 -9999.0 -9999.0 -9999.0 -9999.0 -9999.0 -9999.0 -9999.0 -9999.0 -9999.0 -9999.0 -9999.0 -9999.0 -9999.0 -9999.0 -9999.0 -9999.0 -9999.0 -9999.0 -9999.0 -9999.0 -9999.0 -9999.0 -9999.0 -9999.0 -9999.0 -9999.0 -9999.0 -9999.0 -9999.0 -9999.0 -9999.0 -9999.0 -9999.0 -9999.0 -9999.0 -9999.0 -9999.0 -9999.0 -9999.0 -9999.0 -9999.0 -9999.0 -9999.0 -9999.0 -9999.0 -9999.0 -9999.0 -9999.0 -9999.0 -9999.0 -9999.0 -9999.0 -9999.0 -9999.0 -9999.0 -9999.0 -9999.0 -9999.0 -9999.0 -9999.0 -9999.0 -9999.0 -9999.0
-9999.0 -9999.0 -9999.0 -9999.0 -9999.0 -9999.0 -9999.0 -9999.0 -9999.0 -9999.0 -9999.0 -9999.0 -9999.0 -9999.0 -9999.0 -9999.0 -9999.0 -9999.0 -9999.0 -9999.0 -9999.0 -9999.0 -9999.0 -9999.0 -9999.0 -9999.0 -9999.0 -9999.0 -9999.0 -9999.0 -9999.0 -9999.0 -9999.0 -9999.0 -9999.0 -9999.0 -9999.0 -9999.0 -9999.0 -9999.0 -9999.0 -9999.0 -9999.0 1174.8349609375 1171.675048828125 1164.8759765625 1160.916015625 1158.406005859375 1156.43603515625 1157.0069580078125 1157.927001953125 1163.0670166015625 1163.998046875 1164.218017578125 1167.718017578125 1174.759033203125 1178.448974609375 1181.22900390625 1184.030029296875 1186.4300537109375 1190.0400390625 1193.240966796875 1197.0810546875 1200.73095703125 1204.3509521484375 1207.822021484375 1212.052001953125 1216.302001953125 1221.4930419921875 1226.7230224609375 1232.6629638671875 1238.9639892578125 1246.4840087890625 1252.0240478515625 1259.2950439453125 1265.7650146484375 1272.344970703125 1278.4560546875 1284.43603515625 1289.345947265625 1296.3370361328125 1303.95703125 1310.9969482421875 1317.3170166015625 1320.7879638671875 1326.657958984375 1332.238037109375 1338.6290283203125 1342.958984375 1347.8790283203125 1354.6400146484375 1361.6800537109375 1368.8699951171875 1376.6309814453125 1383.490966796875 1392.1409912109375 1399.4720458984375 1407.302001953125 1413.072021484375 1423.501953125 1439.5030517578125 1453.373046875 1463.3929443359375 1469.7640380859375 1480.803955078125 1485.0240478515625 1490.56494140625 1498.64501953125 1506.625 1516.6259765625 1520.696044921875 1523.7459716796875 1530.0670166015625 1537.64697265625 1546.3470458984375 1551.8570556640625 1551.1280517578125 1555.697998046875 1563.22802734375 1570.5389404296875 1577.2889404296875 1583.239013671875 1589.6199951171875 1595.8299560546875 1602.469970703125 1610.281005859375 1617.551025390625 1624.6009521484375 1630.7919921875 1637.6319580078125 1644.342041015625 1651.1219482421875 1658.6929931640625 1666.113037109375 1673.6929931640625 1680.81396484375 1690.7139892578125 1697.14404296875 1705.2149658203125 1712.324951171875 1724.5450439453125 1732.885986328125 1739.2359619140625 1747.2760009765625 1756.2569580078125 1763.886962890625 1771.8170166015625 1779.5670166015625 1786.47802734375 -9999.0 -9999.0 -9999.0 -9999.0 -9999.0 -9999.0 -9999.0 -9999.0 -9999.0 -9999.0 -9999.0 -9999.0 -9999.0 -9999.0 -9999.0 -9999.0 -9999.0 -9999.0 -9999.0 -9999.0 -9999.0 -9999.0 -9999.0 -9999.0 -9999.0 -9999.0 -9999.0 -9999.0 -9999.0 -9999.0 -9999.0 -9999.0 -9999.0 -9999.0 -9999.0 -9999.0 -9999.0 -9999.0 -9999.0 -9999.0 -9999.0 -9999.0 -9999.0 -9999.0 -9999.0 -9999.0 -9999.0 -9999.0 -9999.0 -9999.0 -9999.0 -9999.0 -9999.0 -9999.0 -9999.0 -9999.0 -9999.0 -9999.0 -9999.0 -9999.0 -9999.0 -9999.0 -9999.0 -9999.0 -9999.0 -9999.0 -9999.0 -9999.0 -9999.0 -9999.0 -9999.0
-9999.0 -9999.0 -9999.0 -9999.0 -9999.0 -9999.0 -9999.0 -9999.0 -9999.0 -9999.0 -9999.0 -9999.0 -9999.0 -9999.0 -9999.0 -9999.0 -9999.0 -9999.0 -9999.0 -9999.0 -9999.0 -9999.0 -9999.0 -9999.0 -9999.0 -9999.0 -9999.0 -9999.0 -9999.0 -9999.0 -9999.0 -9999.0 -9999.0 -9999.0 -9999.0 -9999.0 -9999.0 -9999.0 -9999.0 -9999.0 -9999.0 -9999.0 -9999.0 1172.906005859375 1165.8759765625 1161.1259765625 1159.5870361328125 1158.126953125 1155.3570556640625 1156.3780517578125 1157.1180419921875 1160.657958984375 1162.3580322265625 1164.468994140625 1169.4189453125 1176.4090576171875 1179.3599853515625 1182.3399658203125 1185.3800048828125 1188.3509521484375 1191.1710205078125 1194.5009765625 1197.6519775390625 1201.6920166015625 1205.052001953125 1208.9329833984375 1212.782958984375 1216.9229736328125 1221.7640380859375 1227.404052734375 1233.083984375 1239.364013671875 1247.125 1252.9649658203125 1259.68505859375 1266.2960205078125 1271.2960205078125 1275.60595703125 1278.177001953125 1283.3170166015625 1291.3570556640625 1299.7080078125 1306.5279541015625 1309.2879638671875 1314.6590576171875 1320.26904296875 1325.6689453125 1330.0989990234375 1335.9599609375 1343.1800537109375 1349.81005859375 1357.821044921875 1365.970947265625 1373.9410400390625 1381.3819580078125 1388.2320556640625 1395.8919677734375 1401.9429931640625 1407.4429931640625 1414.572998046875 1434.083984375 1449.06396484375 1455.364013671875 1464.823974609375 1473.0350341796875 1477.824951171875 1483.89501953125 1491.9659423828125 1498.39599609375 1507.0660400390625 1511.886962890625 1517.7669677734375 1525.447021484375 1532.39794921875 1538.718017578125 1540.3079833984375 1542.708984375 1553.4090576171875 1562.0889892578125 1577.0589599609375 1581.6800537109375 1585.760009765625 1591.260009765625 1596.5009765625 1601.6910400390625 1609.02099609375 1617.052001953125 1623.6419677734375 1630.2020263671875 1637.0830078125 1644.2030029296875 1650.5030517578125 1657.7440185546875 1664.384033203125 1671.343994140625 1679.2640380859375 1687.135009765625 1694.4749755859375 1702.635009765625 1710.7659912109375 1718.8759765625 1726.416015625 1735.156982421875 1743.89697265625 1752.906982421875 1761.91796875 1771.3380126953125 1779.3580322265625 1785.4990234375 -9999.0 -9999.0 -9999.0 -9999.0 -9999.0 -9999.0 -9999.0 -9999.0 -9999.0 -9999.0 -9999.0 -9999.0 -9999.0 -9999.0 -9999.0 -9999.0 -9999.0 -9999.0 -9999.0 -9999.0 -9999.0 -9999.0 -9999.0 -9999.0 -9999.0 -9999.0 -9999.0 -9999.0 -9999.0 -9999.0 -9999.0 -9999.0 -9999.0 -9999.0 -9999.0 -9999.0 -9999.0 -9999.0 -9999.0 -9999.0 -9999.0 -9999.0 -9999.0 -9999.0 -9999.0 -9999.0 -9999.0 -9999.0 -9999.0 -9999.0 -9999.0 -9999.0 -9999.0 -9999.0 -9999.0 -9999.0 -9999.0 -9999.0 -9999.0 -9999.0 -9999.0 -9999.0 -9999.0 -9999.0 -9999.0 -9999.0 -9999.0 -9999.0 -9999.0 -9999.0 -9999.0
-9999.0 -9999.0 -9999.0 -9999.0 -9999.0 -9999.0 -9999.0 -9999.0 -9999.0 -9999.0 -9999.0 -9999.0 -9999.0 -9999.0 -9999.0 -9999.0 -9999.0 -9999.0 -9999.0 -9999.0 -9999.0 -9999.0 -9999.0 -9999.0 -9999.0 -9999.0 -9999.0 -9999.0 -9999.0 -9999.0 -9999.0 -9999.0 -9999.0 -9999.0 -9999.0 -9999.0 -9999.0 -9999.0 -9999.0 -9999.0 -9999.0 -9999.0 1171.676025390625 1169.39599609375 1162.0369873046875 1158.406982421875 1158.0269775390625 1156.758056640625 1154.8380126953125 1155.3380126953125 1156.0489501953125 1159.5989990234375 1161.458984375 1165.989990234375 1171.75 1176.260009765625 1179.02001953125 1182.281005859375 1184.48095703125 1187.4010009765625 1190.6219482421875 1193.6920166015625 1196.362060546875 1199.7230224609375 1203.60302734375 1208.762939453125 1213.4739990234375 1218.4539794921875 1223.2139892578125 1228.7149658203125 1234.31494140625 1240.405029296875 1246.5460205078125 1252.696044921875 1257.615966796875 1260.5860595703125 1263.5369873046875 1269.6070556640625 1271.987060546875 1278.758056640625 1287.258056640625 1296.8179931640625 1299.948974609375 1302.5589599609375 1307.8890380859375 1313.7099609375 1319.6099853515625 1325.47998046875 1331.9010009765625 1338.551025390625 1347.220947265625 1356.291015625 1364.052001953125 1370.8719482421875 1377.56201171875 1384.552978515625 1390.9830322265625 1395.883056640625 1402.39404296875 1410.8740234375 1421.364013671875 1441.5250244140625 1452.2349853515625 1459.5450439453125 1465.9859619140625 1471.2060546875 1478.3260498046875 1486.2060546875 1492.0069580078125 1499.0570068359375 1504.3170166015625 1510.2779541015625 1518.427978515625 1527.5379638671875 1528.2889404296875 1532.8990478515625 1540.2889404296875 1548.8299560546875 1569.739990234375 1587.6400146484375 1590.1610107421875 1593.73095703125 1596.3409423828125 1599.1510009765625 1604.511962890625 1610.822021484375 1618.31201171875 1623.2030029296875 1630.843017578125 1637.7030029296875 1644.3740234375 1651.7139892578125 1659.06396484375 1665.9449462890625 1674.074951171875 1681.4949951171875 1688.1650390625 1695.7359619140625 1702.6259765625 1710.615966796875 1718.2669677734375 1725.886962890625 1733.8070068359375 1741.468017578125 1750.498046875 1760.68798828125 1771.6490478515625 1779.0889892578125 -9999.0 -9999.0 -9999.0 -9999.0 -9999.0 -9999.0 -9999.0 -9999.0 -9999.0 -9999.0 -9999.0 -9999.0 -9999.0 -9999.0 -9999.0 -9999.0 -9999.0 -9999.0 -9999.0 -9999.0 -9999.0 -9999.0 -9999.0 -9999.0 -9999.0 -9999.0 -9999.0 -9999.0 -9999.0 -9999.0 -9999.0 -9999.0 -9999.0 -9999.0 -9999.0 -9999.0 -9999.0 -9999.0 -9999.0 -9999.0 -9999.0 -9999.0 -9999.0 -9999.0 -9999.0 -9999.0 -9999.0 -9999.0 -9999.0 -9999.0 -9999.0 -9999.0 -9999.0 -9999.0 -9999.0 -9999.0 -9999.0 -9999.0 -9999.0 -9999.0 -9999.0 -9999.0 -9999.0 -9999.0 -9999.0 -9999.0 -9999.0 -9999.0 -9999.0 -9999.0 -9999.0 -9999.0
-9999.0 -9999.0 -9999.0 -9999.0 -9999.0 -9999.0 -9999.0 -9999.0 -9999.0 -9999.0 -9999.0 -9999.0 -9999.0 -9999.0 -9999.0 -9999.0 -9999.0 -9999.0 -9999.0 -9999.0 -9999.0 -9999.0 -9999.0 -9999.0 -9999.0 -9999.0 -9999.0 -9999.0 -9999.0 -9999.0 -9999.0 -9999.0 -9999.0 -9999.0 -9999.0 -9999.0 -9999.0 -9999.0 -9999.0 -9999.0 -9999.0 1169.7769775390625 1169.72705078125 1166.487060546875 1158.5169677734375 1156.9580078125 1156.5179443359375 1155.5980224609375 1154.218994140625 1153.489013671875 1154.178955078125 1157.31005859375 1161.8199462890625 1168.219970703125 1173.6009521484375 1176.3409423828125 1179.6510009765625 1183.052001953125 1185.4219970703125 1189.1219482421875 1190.5419921875 1193.782958984375 1196.7130126953125 1199.843017578125 1202.7139892578125 1205.89404296875 1211.39404296875 1217.6949462890625 1223.4849853515625 1228.4849853515625 1233.595947265625 1238.5460205078125 1244.916015625 1245.68701171875 1250.737060546875 1253.1070556640625 1256.5980224609375 1261.5880126953125 1268.3780517578125 1275.947998046875 1283.3690185546875 1290.759033203125 1294.279052734375 1296.1099853515625 1302.31005859375 1308.8699951171875 1315.541015625 1322.48095703125 1329.23095703125 1336.4720458984375 1345.4820556640625 1353.251953125 1360.592041015625 1367.302978515625 1373.4830322265625 1379.6829833984375 1385.1240234375 1391.14404296875 1398.35400390625 1406.824951171875 1425.405029296875 1431.2550048828125 1445.2760009765625 1453.595947265625 1458.9959716796875 1465.737060546875 1475.0369873046875 1479.717041015625 1486.8570556640625 1493.3380126953125 1498.637939453125 1507.248046875 1512.9189453125 1517.93896484375 1524.468994140625 1530.2099609375 1537.97998046875 1546.02001953125 1568.2509765625 1594.48095703125 1598.4410400390625 1601.342041015625 1603.6920166015625 1605.322021484375 1610.08203125 1618.1529541015625 1622.802978515625 1628.9129638671875 1636.404052734375 1643.7340087890625 1652.4739990234375 1658.625 1665.425048828125 1672.385009765625 1678.4959716796875 1684.635986328125 1691.9560546875 1698.8370361328125 1708.6669921875 1715.177001953125 1720.97705078125 1727.738037109375 1734.5579833984375 1743.2779541015625 1752.198974609375 1760.1590576171875 1768.779052734375 1775.6500244140625 -9999.0 -9999.0 -9999.0 -9999.0 -9999.0 -9999.0 -9999.0 -9999.0 -9999.0 -9999.0 -9999.0 -9999.0 -9999.0 -9999.0 -9999.0 -9999.0 -9999.0 -9999.0 -9999.0 -9999.0 -9999.0 -9999.0 -9999.0 -9999.0 -9999.0 -9999.0 -9999.0 -9999.0 -9999.0 -9999.0 -9999.0 -9999.0 -9999.0 -9999.0 -9999.0 -9999.0 -9999.0 -9999.0 -9999.0 -9999.0 -9999.0 -9999.0 -9999.0 -9999.0 -9999.0 -9999.0 -9999.0 -9999.0 -9999.0 -9999.0 -9999.0 -9999.0 -9999.0 -9999.0 -9999.0 -9999.0 -9999.0 -9999.0 -9999.0 -9999.0 -9999.0 -9999.0 -9999.0 -9999.0 -9999.0 -9999.0 -9999.0 -9999.0 -9999.0 -9999.0 -9999.0 -9999.0
-9999.0 -9999.0 -9999.0 -9999.0 -9999.0 -9999.0 -9999.0 -9999.0 -9999.0 -9999.0 -9999.0 -9999.0 -9999.0 -9999.0 -9999.0 -9999.0 -9999.0 -9999.0 -9999.0 -9999.0 -9999.0 -9999.0 -9999.0 -9999.0 -9999.0 -9999.0 -9999.0 -9999.0 -9999.0 -9999.0 -9999.0 -9999.0 -9999.0 -9999.0 -9999.0 -9999.0 -9999.0 -9999.0 -9999.0 -9999.0 -9999.0 -9999.0 1169.008056640625 1163.5379638671875 1155.947998046875 1155.3990478515625 1155.279052734375 1154.4189453125 1153.009033203125 1152.1500244140625 1153.4300537109375 1155.719970703125 1162.2509765625 1168.8909912109375 1173.470947265625 1176.7320556640625 1180.3819580078125 1182.1719970703125 1186.02294921875 1188.9530029296875 1191.9129638671875 1194.4239501953125 1197.85400390625 1201.10400390625 1203.9150390625 1207.114990234375 1210.43505859375 1214.7650146484375 1220.0159912109375 1224.8060302734375 1229.2159423828125 1233.5269775390625 1237.636962890625 1242.7769775390625 1243.7979736328125 1249.0279541015625 1254.47802734375 1259.1290283203125 1265.4090576171875 1272.7490234375 1279.009033203125 1284.8599853515625 1288.9100341796875 1295.0899658203125 1300.7110595703125 1306.821044921875 1313.8310546875 1320.83203125 1328.0419921875 1334.9320068359375 1342.9730224609375 1349.9329833984375 1356.4630126953125 1362.7039794921875 1368.6739501953125 1374.1939697265625 1380.1240234375 1386.425048828125 1393.1650390625 1400.9949951171875 1422.2860107421875 1417.9959716796875 1438.156005859375 1447.136962890625 1453.5269775390625 1461.8070068359375 1469.488037109375 1476.22802734375 1482.2679443359375 1489.1689453125 1496.47900390625 1503.51904296875 1509.7490234375 1515.8699951171875 1524.0799560546875 1530.1400146484375 1538.1910400390625 1547.1910400390625 1565.9110107421875 1595.362060546875 1605.1319580078125 1608.2320556640625 1609.9730224609375 1612.7130126953125 1616.9129638671875 1622.7039794921875 1629.1839599609375 1634.2139892578125 1641.1839599609375 1647.4749755859375 1655.89501953125 1663.9649658203125 1671.5159912109375 1675.416015625 1682.5059814453125 1689.68701171875 1695.8470458984375 1702.3270263671875 1709.9580078125 1717.2679443359375 1724.89794921875 1733.137939453125 1738.739013671875 1745.3790283203125 1753.1590576171875 1762.1300048828125 1769.030029296875 1774.949951171875 -9999.0 -9999.0 -9999.0 -9999.0 -9999.0 -9999.0 -9999.0 -9999.0 -9999.0 -9999.0 -9999.0 -9999.0 -9999.0 -9999.0 -9999.0 -9999.0 -9999.0 -9999.0 -9999.0 -9999.0 -9999.0 -9999.0 -9999.0 -9999.0 -9999.0 -9999.0 -9999.0 -9999.0 -9999.0 -9999.0 -9999.0 -9999.0 -9999.0 -9999.0 -9999.0 -9999.0 -9999.0 -9999.0 -9999.0 -9999.0 -9999.0 -9999.0 -9999.0 -9999.0 -9999.0 -9999.0 -9999.0 -9999.0 -9999.0 -9999.0 -9999.0 -9999.0 -9999.0 -9999.0 -9999.0 -9999.0 -9999.0 -9999.0 -9999.0 -9999.0 -9999.0 -9999.0 -9999.0 -9999.0 -9999.0 -9999.0 -9999.0 -9999.0 -9999.0 -9999.0 -9999.0 -9999.0
-9999.0 -9999.0 -9999.0 -9999.0 -9999.0 -9999.0 -9999.0 -9999.0 -9999.0 -9999.0 -9999.0 -9999.0 -9999.0 -9999.0 -9999.0 -9999.0 -9999.0 -9999.0 -9999.0 -9999.0 -9999.0 -9999.0 -9999.0 -9999.0 -9999.0 -9999.0 -9999.0 -9999.0 -9999.0 -9999.0 -9999.0 -9999.0 -9999.0 -9999.0 -9999.0 -9999.0 -9999.0 -9999.0 -9999.0 -9999.0 -9999.0 -9999.0 1166.8680419921875 1159.6290283203125 1155.009033203125 1154.3790283203125 1154.3599853515625 1152.6600341796875 1152.1500244140625 1151.6610107421875 1152.6209716796875 1156.3310546875 1162.761962890625 1169.4520263671875 1173.592041015625 1177.4820556640625 1180.512939453125 1182.6529541015625 1185.8929443359375 1188.884033203125 1191.7740478515625 1195.2939453125 1198.1949462890625 1201.405029296875 1204.155029296875 1207.0860595703125 1210.2860107421875 1214.365966796875 1218.5860595703125 1222.2669677734375 1226.427001953125 1230.64697265625 1234.5179443359375 1240.16796875 1242.998046875 1251.7490234375 1256.4990234375 1261.6390380859375 1266.56005859375 1271.9300537109375 1277.280029296875 1282.321044921875 1288.051025390625 1294.3709716796875 1300.051025390625 1306.3719482421875 1312.8919677734375 1319.491943359375 1326.1429443359375 1332.302978515625 1338.7230224609375 1346.0040283203125 1352.9139404296875 1358.843994140625 1365.18505859375 1370.43505859375 1375.9849853515625 1382.9759521484375 1389.615966796875 1396.8260498046875 1405.7860107421875 1412.95703125 1421.636962890625 1448.0770263671875 1454.968017578125 1463.887939453125 1471.907958984375 1477.8489990234375 1485.239013671875 1492.01904296875 1498.3199462890625 1505.2900390625 1512.6800537109375 1521.5810546875 1528.6309814453125 1534.051025390625 1541.1510009765625 1550.3819580078125 1558.2220458984375 1593.4420166015625 1609.373046875 1614.9429931640625 1616.572998046875 1620.3740234375 1624.9439697265625 1630.7440185546875 1636.8349609375 1643.2049560546875 1648.0250244140625 1656.2449951171875 1660.2459716796875 1667.2960205078125 1673.906005859375 1681.68701171875 1688.7769775390625 1694.18701171875 1701.3079833984375 1708.2779541015625 1715.0579833984375 1721.0389404296875 1728.178955078125 1735.0389404296875 1741.5 1748.3299560546875 1755.699951171875 1763.25 1769.8310546875 -9999.0 -9999.0 -9999.0 -9999.0 -9999.0 -9999.0 -9999.0 -9999.0 -9999.0 -9999.0 -9999.0 -9999.0 -9999.0 -9999.0 -9999.0 -9999.0 -9999.0 -9999.0 -9999.0 -9999.0 -9999.0 -9999.0 -9999.0 -9999.0 -9999.0 -9999.0 -9999.0 -9999.0 -9999.0 -9999.0 -9999.0 -9999.0 -9999.0 -9999.0 -9999.0 -9999.0 -9999.0 -9999.0 -9999.0 -9999.0 -9999.0 -9999.0 -9999.0 -9999.0 -9999.0 -9999.0 -9999.0 -9999.0 -9999.0 -9999.0 -9999.0 -9999.0 -9999.0 -9999.0 -9999.0 -9999.0 -9999.0 -9999.0 -9999.0 -9999.0 -9999.0 -9999.0 -9999.0 -9999.0 -9999.0 -9999.0 -9999.0 -9999.0 -9999.0 -9999.0 -9999.0 -9999.0 -9999.0
